ply
format ascii 1.0
element vertex 701
property double x
property double y
property double z
property uchar red
property uchar green
property uchar blue
end_header
-0.6406469545028715 0.3794029037629324 1.7588452941991715 139 134 131
0.8697235291873056 0.4311806193382309 1.7385979958047104 137 133 132
0.8697235291873056 0.4311806193382309 1.7385979958047104 137 133 132
0.8873420985347077 0.4315813539510578 1.7390453383501239 133 129 128
-0.3739705025402402 0.3926345341624441 1.7523016311778041 146 140 140
-0.4821931859071192 0.3940094242122428 1.7499027820286546 144 140 139
-0.4656270900840516 0.3941294554367012 1.7519627149007004 141 137 136
-0.5365746956036886 0.3946308451106002 1.7490628863483482 138 134 133
-0.3002524394224594 0.4280457842191963 1.7496964705387503 143 135 133
-0.6123852188217225 0.3973699704560051 1.7569455645842600 145 137 135
-0.3004127210670431 0.4285172163499499 1.7509456192078077 143 133 131
-0.5911134421213022 0.3958951648526608 1.7508481412094319 138 132 132
-0.6288081628780308 0.3963164072118263 1.7520120484380479 142 137 134
-0.4807677340593637 0.4308826764554499 1.7478994317978092 139 134 131
-0.5745612152932040 0.4323271539504328 1.7504874304083844 138 134 133
0.8572731662343440 0.4120515525046767 1.7366117436490351 136 135 133
-0.7387473870635002 0.3972696022812053 1.7529645144850614 139 135 136
0.9142553383983547 0.4493953346331377 1.7371428875525783 135 131 128
-0.7567563239581671 0.3979555606639431 1.7548642938676278 136 130 130
0.8419339561732179 0.4494387126309642 1.7360369811439211 129 125 122
-0.5094548716247020 0.4140850951539933 1.7538651386892345 143 135 132
-0.6847749342508198 0.4335630945065800 1.7519887064132482 140 132 129
-0.2051243592463437 0.4463109076835766 1.7514539730445939 142 133 128
-0.2330709280721394 0.4450364643416178 1.7459410821662418 143 135 133
-0.2174410501151428 0.4459071412987345 1.7496269156060174 134 129 126
-0.2723360964944240 0.4469742916868584 1.7498901201547763 144 139 136
0.8312450395762265 0.4315449575608555 1.7382968940869914 138 134 131
-0.7274283056074895 0.4149184865146444 1.7504140235976848 140 136 135
-0.3270303113819644 0.4474360754484797 1.7498001046131804 155 150 146
-0.2884130314169320 0.4462818326462065 1.7466889311559455 141 136 133
-0.3970820396299363 0.4470899526075623 1.7465723893830529 142 137 134
-0.5462992577562026 0.4499650583822575 1.7483566701243076 136 131 128
0.8292820040788581 0.4491758645993471 1.7338288520174183 129 126 121
0.3567670910536861 0.4641430084003323 1.7691334613222383 152 134 114
0.8887142550001156 0.4681202074783921 1.7369739528020263 118 114 113
0.3988289176767019 0.4600572482200599 1.7494444492667047 163 142 125
-0.2613064124591888 0.4643541515723409 1.7461431802872975 139 129 127
-0.2452194101518348 0.4644127865710510 1.7487746282108503 136 131 128
-0.6569506642459488 0.4517499131185241 1.7514532288366853 129 121 118
0.8313603792068511 0.4678823202015582 1.7341986508131384 131 127 126
-0.3164226356747824 0.4643470342892612 1.7437642461271425 138 130 127
-0.3718167413173664 0.4648164963789443 1.7439926745417800 136 132 129
-0.7104749502709929 0.4513163964599765 1.7481947328903336 132 128 127
0.9071167933524807 0.4783066458660281 1.7351927844260588 55 51 50
-0.4663701947133304 0.4675294584788037 1.7483716448735791 136 131 128
-0.5372855094553147 0.4670747426450364 1.7439240117625030 141 135 135
-0.5382081790709146 0.4675780665620213 1.7453238624054319 141 135 135
-0.4818762622953328 0.4670449627024695 1.7459499613414746 132 126 126
-0.5918894402701939 0.4673880634790306 1.7441775374971269 135 130 127
-0.5750225961861783 0.4680143690013495 1.7466639690878365 137 132 129
0.8577365581404379 0.4839499786102424 1.7299507755839643 116 112 109
-0.6292615454583902 0.4685176849782807 1.7469155188576588 137 129 126
0.8995915756770024 0.4859767155766388 1.7385149944825860 116 108 106
-0.6452926645293557 0.4681003714930554 1.7444650078884756 132 127 123
0.8976945347305414 0.4851552841217576 1.7352349563394840 116 108 106
0.9166585512763831 0.4861506476039402 1.7354489921087772 131 126 122
0.8424896928986126 0.4867391858499190 1.7341800119227795 107 103 100
-0.6857652299274384 0.4711285886833547 1.7525467476243413 126 118 116
-0.6992109387989049 0.4687289618426098 1.7446060865099691 129 125 122
-0.2333421305596730 0.4807391243423375 1.7412654561604273 135 126 121
-0.2172669490086514 0.4824860990366816 1.7475722271832770 133 126 120
-0.2172228893951497 0.4828897250983811 1.7484272982045010 133 126 120
-0.3802862733946212 0.4847132226739446 1.7491859856147163 137 129 127
-0.2715808699443041 0.4830226625687916 1.7477314285844514 140 132 129
-0.4186905627373702 0.4840183748063724 1.7459260738993776 141 132 127
-0.3422575670227062 0.4830270425052349 1.7443174189544417 135 127 124
-0.4911104883331184 0.4867219914424868 1.7494898975289306 141 136 133
-0.5233609023755363 0.4852014418861076 1.7426516145267095 141 134 128
-0.3967988872049799 0.4840613463670326 1.7447220799502090 133 128 125
-0.4360050009940786 0.4851810332984308 1.7467429284480012 140 132 130
-0.5449479444096255 0.4876726757863456 1.7489719177362495 134 130 129
-0.5058838457583439 0.4843447890722286 1.7414646973225174 136 132 131
-0.6181990276912724 0.4867134031644583 1.7455689263918908 139 131 128
-0.6012840129668890 0.4882576926925966 1.7503157952652109 135 130 127
-0.5931220481939466 0.4171575406716381 1.4903007860432196 142 133 128
-0.7275085527443075 0.4862648358301334 1.7383726692404680 125 120 117
-0.7126435888693429 0.4892926090539748 1.7500250405583346 133 128 125
0.8760788191590584 0.5107458818497111 1.7365363792112696 54 44 42
-0.7660264990524985 0.4880319099455995 1.7412586945274573 134 126 123
0.1085657243622580 0.5045931791104677 1.7367826919632372 56 37 33
-0.5459292288576256 0.5141190138952564 1.7307125792108127 42 41 49
-0.5969493381336002 0.5144086592875442 1.7316837162159018 39 40 45
0.7121632829540114 0.4942182995380355 1.4488432181234179 65 64 60
0.6115863129904786 0.4926309305536276 1.4426846670529982 62 61 59
0.0867692163401275 0.4916752532974600 1.4537215935601135 130 130 128
0.4323121933269803 0.4964666148156214 1.4496890345301450 47 41 41
-0.0638490198736078 0.4923219338050342 1.4560434524766239 160 164 163
-0.0022852219138464 0.4927777627237577 1.4538387325888984 169 170 165
-0.2386599064430992 0.4942971996952915 1.4596807268613390 167 176 183
0.1959665000170535 0.4992688616963063 1.4503154729773879 64 60 57
-0.2690025106165632 0.4953560614242667 1.4587849104486321 123 133 143
-0.4696236601536143 0.4977903588966885 1.4577595351350607 172 175 184
-0.4286645246383052 0.4975251821759319 1.4531963103992702 172 173 175
-0.5699353174178201 0.4991222744810166 1.4649599213906035 168 173 179
0.5643716934067878 0.5067316444802832 1.4214877505087355 51 31 24
0.6302899752533773 0.5070287630356394 1.4196124387396443 65 42 34
0.6298525207752899 0.5068868222674759 1.4193233311434033 55 38 31
-0.5449030629376216 0.5018075352073746 1.4615442271058563 192 188 187
-0.3203249572310779 0.5032046743931106 1.4536547836389095 55 55 53
0.6509512001756130 0.5093014406891406 1.4136824392719098 48 30 28
-0.6876751041883027 0.4983870353234758 1.4511652097808083 202 206 209
-0.6895057097727912 0.5003476050689141 1.4577062198496169 202 206 209
-0.7353283944193975 0.5028634073284518 1.4623372963969872 175 180 186
0.0693394172569670 0.5177927356050283 1.4480847914268260 67 71 72
-0.6046247704612616 0.5065872439643903 1.4560311332850364 53 49 48
-0.6701811681348135 0.5200555182300454 1.4546468095810694 98 95 86
0.4396986880078655 0.5080960150362291 1.4357554078485837 81 52 44
0.5588542924969021 0.1283852176844892 2.3538646165111619 75 74 80
-0.7160980089642980 0.5103215284666144 1.4566133615128964 72 68 65
-0.6696524121224630 0.2280122714887415 1.7656548230641205 161 160 165
-0.6491585882867238 0.2287387011290858 1.7711779238553083 169 168 173
-0.5797852425786114 0.5155439873714752 1.7714910468450003 101 89 77
-0.6668758486838143 0.5071335457130506 1.7448234899905319 121 108 99
0.5560488673075189 0.4900225137444670 1.4515357146624424 164 169 163
0.0355721584106146 0.4927351634170730 1.4604301173001559 132 139 145
0.1005444345278551 0.4993059324159183 1.4530335983306264 68 73 76
0.3698795848009941 0.5012938382590970 1.4478450462609869 47 43 42
-0.2693946874460633 0.4965721296975656 1.4610131657585015 123 133 143
0.6047942745069952 0.5052908992057699 1.4463420287377837 210 165 136
-0.3084919598015911 0.4964572232711736 1.4564926361296389 214 219 223
0.2227966420565470 0.5044665822159067 1.4481341962020280 72 73 77
-0.6214727557308829 0.5018260281898401 1.4688663058768145 161 164 179
-0.3193051528490463 0.5044685055494366 1.4496854064426437 71 69 70
0.7097469459391155 0.5149261757056295 1.4260355038055983 36 18 14
-0.4381461940531572 0.5066491788792181 1.4534581291800748 61 61 63
0.4682977497526974 0.5103590203517171 1.4170376093926831 51 30 25
0.6034278050327435 0.5091860191096689 1.4049801053473414 55 31 27
-0.5188624077225558 0.5086377152626100 1.4529243999880457 95 91 88
0.2267187588631097 0.5217129142650576 1.4450043897415998 114 110 101
0.4167426036419012 0.5159250144837737 1.4163386876137396 45 27 25
0.4018254247063155 0.5237154289283358 1.3871966710106967 155 121 93
0.8150062033119068 0.2151421783604066 1.7943417462957338 148 152 164
-0.5920863838733129 0.2245659661901191 1.7634659375274180 140 133 125
0.7800535711060070 0.4584927892403974 1.8474928203438736 128 121 115
0.4478760964052657 0.4600077169456240 1.7633715828515146 147 129 115
0.6334209053122941 0.4964587111958265 1.4503191907554545 53 52 50
-0.0564950668686188 0.5032331918957414 1.4505724587912538 84 89 93
-0.5130127942325137 0.4981243175675308 1.4584394558600531 219 218 216
-0.1445490236591550 0.5035778781060359 1.4523707507216213 47 47 47
-0.5926476956103031 0.1934469832264987 1.7723247220679563 200 200 200
-0.5203621763745819 0.1941272005689557 1.7695142286620360 196 193 184
-0.4536523508931289 0.5130474653866434 1.7502237387777380 128 117 113
0.1919382879536966 0.5036726054969971 1.4485037958292974 77 74 69
-0.2001425348983141 0.5092279124657177 1.4498158117466740 51 51 53
-0.0524306735235761 0.5201079248460727 1.4462343301037386 88 90 87
0.4422819282867081 0.5060774288381956 1.4221602915364895 97 75 62
-0.1811958746427859 0.0097582931125420 1.7681276457333501 70 63 57
-0.4002800700796852 0.2216445396057262 1.7696047179007459 108 106 107
0.4631718096901544 0.4924299647692210 1.4578842433426193 194 200 200
-0.5276144628453034 0.1841007944992160 1.7685552822246466 197 196 192
-0.7506321264144361 0.5035753341882608 1.4847205772972243 136 118 130
-0.2304813213145287 0.5116689584999502 1.6432268792954163 36 36 38
-0.5606508579621591 0.5302767960847012 1.7150889944077787 55 52 59
-0.5295264353780446 0.1786832976806765 1.7672617832924764 197 194 187
-0.3975036107855409 0.1799677045972140 1.7639220347329883 208 204 195
0.8258640112164527 0.2518329710758794 1.8166190685787496 92 88 87
-0.0499848594652584 0.4833000808107373 1.4792671461945857 135 125 116
-2.2635593606823630 -1.5890175096965760 4.2858271675570654 164 175 221
0.3406446638170211 -0.3420110523942596 1.8045205162256148 179 170 153
-2.2977661939909844 -1.5540503559372756 4.2090288493985222 160 175 214
0.5522680985248792 0.1272551384679110 2.3387869992163726 52 46 50
-0.7473959661234245 0.2182634401690171 1.7681860150977529 88 82 84
-0.8972706906429910 0.1971639474743141 1.5919629498345109 48 47 63
-0.5546171027449009 0.3740754842967984 1.7545719705151048 81 75 77
-0.2211951372772965 0.3821674774630235 1.7498980725315998 72 63 58
-0.7183152135766662 0.4119066225596688 1.7480309201185400 76 67 68
-0.1987105092434169 0.5027748733246894 1.7448795278437241 69 61 58
-0.6405002841363063 0.5102403885981948 1.7426658670367015 120 107 99
0.1657785316387656 0.4933960703184651 1.4500072808998765 69 71 68
-0.1065575089054382 0.5020806508905722 1.4506159796929323 140 144 147
0.3788575780804047 0.5100066901390038 1.4416171954146193 152 130 117
0.5246621368252915 0.5069447593868474 1.4244859891210138 176 142 132
0.2493626509502606 0.5235792585202553 1.4467289848893368 113 110 103
0.7194362939966792 0.5197142450590231 1.4115318698645336 159 143 127
-0.0806477963123317 0.5273332100135307 1.4458254865266267 136 136 136
0.6117598210780799 0.5181617257926870 1.3788418619489649 53 30 16
-2.3574086864276471 -0.2761319033201996 4.3444549298670569 99 108 139
0.5372907186241744 -0.4695935289794602 1.8248762578885471 200 197 192
0.8227429070834509 0.2107737098977722 1.9525082440063675 67 61 65
0.9182689875879740 0.1993568005488147 1.7589559297300237 178 183 189
-0.4004417424247703 0.2056179062298338 1.7675222451367769 206 203 196
-0.3655917296602546 0.2083587720414966 1.7919646209319648 187 183 174
-0.6847007704461260 0.2081519298743869 1.7780683328141358 172 167 163
-0.4943820677934386 0.2095259548475484 1.7677317748070478 55 42 23
0.2381552785217786 -0.2664994834628016 1.8064368974747278 222 219 214
-0.6762987889974740 0.3153513757845887 1.7609637654644212 56 54 55
-0.6760707637365577 0.3154063152929964 1.7612043794815271 37 33 30
-0.4456426754275775 0.3321442816711415 1.7603276984158840 56 52 51
-0.4092180848768199 0.2274103766531657 1.1822733905120903 43 37 37
-0.8689326023645020 -0.5345475268011461 1.7987345583964904 216 231 255
-0.2807277277026055 0.3816853795804264 1.7513379309340085 56 52 51
-2.3611096065578887 -0.2733156451454871 4.3206388640830529 94 101 129
0.9070286261023465 0.4850424294589908 1.7338030492182501 65 59 59
0.9310311809048588 0.4976484574941105 1.7243417340319840 193 200 210
0.8855412446686483 0.5010479966296242 1.7346526389288519 216 223 233
-0.1507177979400225 0.5020171236078087 1.7397914239090235 178 155 141
-0.7370180789909964 0.4942523113642364 1.7329675164205562 57 48 49
-0.7309093150618975 0.5010416544683899 1.7303180765943367 57 53 54
-0.4440773881289536 0.5151391868355885 1.7372937466401621 182 182 182
-0.3191257241729973 0.5187299490039640 1.7404613086602354 41 34 41
-0.4576720292670691 0.5124332126344002 1.7288124862236331 195 198 207
-0.3053057884767231 -0.0042462363172605 1.7881329395951617 233 232 227
-0.0680394891205018 0.4946973344422462 1.5016315773082307 218 211 201
0.2314292551973320 0.4906469558919980 1.4514606095839504 194 198 201
-0.2933021723191180 0.4969788186638379 1.4573704931654361 179 184 188
-0.3086293073645498 0.4955241899194866 1.4532476551542803 211 216 222
0.3825384244497666 0.5087863896285660 1.4462991000468473 56 38 36
-0.2755894796612116 0.2123158136627131 1.7908366503687474 88 83 79
0.6515659343655417 0.5118990371955143 1.4069923090726542 75 50 45
0.5006784678400298 0.5101773534959282 1.4094657320547517 40 22 12
-0.7264417781532222 0.2160144508853942 1.7688844203634702 164 159 156
0.7147864671456025 0.5201537310132041 1.4111090717334467 39 20 13
0.8828142199771872 0.2609239188503756 1.7618801044395627 103 97 97
0.6921183585312777 0.5180949460651879 1.4006323267970060 91 61 50
0.4643145286504873 0.5167932999238706 1.3938971460546614 42 24 24
-0.5564698823376760 0.2613208066118296 1.7720560772133678 92 88 87
0.5831111132628811 0.5184161883822028 1.3837401712210478 122 98 72
-0.6929442313701385 0.2613588726993972 1.7723662134479017 98 92 92
0.5831351820642403 0.5183980993971220 1.3836578273988591 122 98 72
0.9090542736983336 0.2782402559863296 1.7594399841703325 103 97 97
-0.6095756702705172 0.2779458100672106 1.7695524881939686 95 90 86
-0.7027992948270569 0.5269477822767019 1.4462908809340436 119 115 114
-0.5550832756346450 0.2969826927445366 1.7657233254266453 71 66 63
-0.5833574945828955 0.3156198253982397 1.7627676011630338 79 73 73
-0.4746135025934098 0.3502641649922129 1.7574693415596501 76 68 66
-0.7460380331068361 0.4051924299196783 1.7507690797364444 54 53 51
-0.4169226521952574 0.4376860848472408 1.7479145974854500 52 47 44
0.8501066496147884 0.4570460658903667 1.7351542826407595 60 56 55
0.8808090771163432 0.4601984684825131 1.7387022218938577 77 72 69
-0.2257068510540930 0.4740078659513243 1.7468217702333753 44 37 31
-0.5281721203603074 0.4760599268796319 1.7447759674737939 51 47 48
0.8705721612307448 0.4953557645136737 1.7327219469101032 43 43 43
-0.6644605815056973 0.4792096636405050 1.7461874667214823 48 42 42
-0.3334319481657949 0.4911060719553970 1.7429369166764002 52 47 43
-0.2544301604472833 0.5138576072795810 1.7388207948953058 189 193 202
-0.8545483966953342 0.4956071456639538 1.5646838604690041 58 49 54
-0.3957796196407555 0.4932975836494625 1.4649034648814334 105 81 81
0.4531483644763651 0.5064708058578254 1.4378499118100316 80 46 45
0.5498545147728914 0.5063978461696849 1.4157015482258684 167 130 103
-0.6798748434757116 0.4994301328319747 1.4574355851342500 182 190 192
0.5696069068021592 0.5087402463346007 1.4013693179459772 57 30 21
0.2536657646556046 0.5233339888277443 1.4487015376871710 52 48 49
0.6375827713314540 0.5133678335008572 1.3966878827461358 150 115 95
0.6540335105631406 0.5194046459140969 1.3881974035507187 178 151 132
0.6584383276234255 0.5210987475097532 1.3842857970982658 42 27 24
0.6745530674157187 0.5217006169715307 1.3785128464695473 157 130 101
0.8760944819078808 0.1918620858338439 1.7835170423200732 200 201 196
-0.5020780873758803 0.2606138746579270 1.7728246699585868 98 94 93
-0.7470834287988749 0.2601665825118255 1.7640904616153432 60 60 62
-0.2541185065632386 0.2934930774633149 1.7680626556439250 96 89 83
-0.4454158944978100 0.2954295008801642 1.7653862873406487 79 73 73
-0.5002002461330020 0.2965818807538529 1.7666814134937274 75 71 68
-0.4735714585849355 0.3141294087201059 1.7619803364330862 79 76 71
-0.6380702505005015 0.3161623200538765 1.7615566124325075 73 69 66
-0.6089242257189479 0.4784923225306133 1.7462942163752453 57 52 49
-0.3883839615143470 0.4920340738032948 1.7434868304131659 48 42 42
-0.3095331062847475 0.4929367736265146 1.7445966577936787 55 47 44
-0.4427400011782098 0.4929459570885840 1.7430758839311007 52 48 45
-0.5837093864834713 0.4966800878202323 1.7462399730006000 49 45 42
-0.7184189997999622 0.4965494853590822 1.7444752445315448 48 43 40
0.6598641781982709 0.5051719922861906 1.4253581129537103 137 110 93
-0.3185850419458256 0.5012140379913278 1.4534147283845531 84 84 84
0.6822161370665210 0.5134613564799714 1.4167415968844108 171 149 126
-0.6242826659782251 0.5037637570173386 1.4532275935791270 85 88 103
-0.1163403236897238 -0.0600947875973769 1.8141882661667181 197 193 182
-0.7470672655401386 0.2422824290104895 1.7664184219371535 62 60 63
-0.3178222721612828 0.2839597646764213 1.7617934581832067 139 135 134
-0.7396493264009846 0.2893375814337945 1.7657558322519602 143 137 137
-0.2469661195467472 0.3199250812543258 1.7598317308555596 147 143 144
-0.2467454817163416 0.3564203446910747 1.7592393549995771 152 144 142
0.8567327169660691 0.3759005781711975 1.7417519040234055 147 142 139
-2.2120492894709929 0.1352447981363613 3.9909426112498458 120 127 137
0.8690751478594180 0.3945100438528866 1.7412480897173648 140 139 135
-0.7117048860150207 0.3796478805475071 1.7573633829132913 143 135 132
-0.3020422109771989 0.3924158745769414 1.7532433497436588 150 145 142
0.8873565365165300 0.4314609868014554 1.7389974925017313 133 129 128
-0.5483861790313641 0.2697018841229334 1.7726214794371240 150 146 143
-0.3710008701269943 0.4288840388488953 1.7489801783092755 145 137 135
-0.4296070725123737 0.2852494403355160 1.7662177340591383 142 138 137
-0.2176207451324592 0.4460917649003592 1.7507780523094025 124 115 106
-0.3969699878503305 0.4467391909114410 1.7462032846994289 142 137 134
-0.4527754648858178 0.4479940822720276 1.7463520136473234 136 131 128
-0.7514064253904630 0.3083092137542828 1.7689927468063378 148 139 142
-0.7270434207012342 0.3063706900442954 1.7594221441284499 136 134 135
-0.2877889991442121 0.4824704042767819 1.7441360105533554 136 128 125
-0.6580972729486328 0.4889964969727138 1.7507969627873980 133 128 122
-0.6849386451587638 0.3251943630797441 1.7618544759978902 144 140 141
-0.6168431445413706 0.3415129613493447 1.7539222449485166 138 130 128
0.2540265900427854 0.4984758705286442 1.4505650919158906 65 64 62
0.8847838195134571 0.3935295746354499 1.7375495031421972 140 139 137
0.8303770925152066 0.3950824800117851 1.7414349995715819 139 138 136
0.5648249144128989 0.5069300229274832 1.4225685987509609 51 31 24
0.4155120219846009 0.5089722991660636 1.4257492908646652 168 139 121
-0.3269106339401597 0.4473919584401690 1.7493887103780525 155 150 146
-0.5228718862216225 0.4846413820749821 1.7409797307597712 141 134 128
0.5561890066325808 0.4903639392447574 1.4523029413185289 159 159 159
0.6021572866487317 0.4956645691351194 1.4490375963146480 38 34 33
0.4794838251345822 0.4947811854769812 1.4493316487906882 161 163 162
0.0260192184358046 0.5024276109797934 1.4519080085299108 41 41 39
-0.3294294200778735 0.4976372282613696 1.4561332407178496 125 126 128
-0.5692074107523254 0.4985249258336212 1.4636312909463682 171 174 179
0.4019316618300991 0.5235145961016934 1.3874748912890413 155 121 93
-0.2899765892495395 0.4972675121691223 1.4562280284839606 187 194 200
-0.0863564317300518 0.5052504230774357 1.4505050160757031 47 47 49
0.3762859357950712 -0.3547118778782943 1.8160746955631939 197 197 189
0.5309892461036445 0.5014883955914654 1.4330803846550482 63 42 39
0.6139311549554682 0.5181102820643294 1.3868022564298761 166 134 111
0.1120676561667815 -0.1890047723675040 1.8367956000064634 97 88 79
0.2252850033200838 0.4926582734460477 1.4607739346432942 165 169 168
-0.4679257244423149 0.1935732808031192 1.7695089548275982 170 161 144
-0.3906849332191476 0.1893120348495538 1.7628063706853103 187 181 169
0.8445555540830664 0.3675630188123645 1.7584062136486140 137 136 134
-0.6051895997853842 0.3537393642363259 1.7566392599624983 136 128 126
0.2979955196933437 0.4784626079005683 2.3158217461459776 76 66 64
0.7385726871067386 0.4798581069516923 2.3076557269474156 134 134 142
0.0204793317265364 0.4786655787486475 2.3118911126815997 65 57 55
0.0070278903199025 0.4797991395678639 2.3168881294944255 87 76 70
-0.0343940500947657 0.4797515282070278 2.3103882427439979 67 60 54
-0.1212016097453079 0.4811501495800992 2.3151108862939282 59 53 53
-0.0212641746126638 -0.7189909300376166 1.8913892500780121 206 203 198
0.0089253033013968 -0.7174146878050203 1.8869891794512663 212 205 197
-0.1338247769385099 -0.7172436148402719 1.8905955773679981 207 204 197
0.3893617359067091 0.4901564660545014 2.3120291568563607 94 86 75
0.5648755784484314 0.4936360515098206 2.3202143604907732 35 34 32
-0.5287946586472658 0.3709258815009620 1.7557060708671393 136 131 127
0.0718961747195215 0.5022627328044663 2.3291527951639091 48 38 36
-0.0143325991275360 0.4978632404453100 2.3101935969123222 54 46 43
0.8245547264890729 0.4276331961965423 1.8047429459908555 60 53 47
-0.5045030199476213 0.4074689085026355 1.7531070583579376 134 126 124
0.8306951194509103 0.4282332752020028 1.7846613677872778 67 63 60
-0.5584642601020497 0.4082993361879389 1.7518774255791234 130 122 119
0.6791627805148147 -0.5109602017529653 1.8891511327099295 201 198 191
0.0991435189867278 -0.2030877478401638 1.7969026936593135 207 206 201
-0.4174312392619813 0.4302798919811533 1.7486698810741486 71 67 64
-0.2296890994605262 0.4367784578877377 1.7491832594363752 44 36 34
-0.2953694385380303 0.4371378512561865 1.7489812862140663 44 34 32
-0.3261549238671484 0.4407981721743411 1.7486005372935172 158 153 150
0.4428916679554137 0.4599761277444714 1.7440334859109210 168 150 138
-0.4477684748016951 0.4548548821747931 1.7467908220205379 138 133 130
-0.3053464090929328 0.4699040907184875 1.7468366887040199 128 120 117
-0.3048388705189147 0.4891964826409505 1.7462137899440373 144 133 127
-0.2825151298438329 0.4880926663120592 1.7431915742432171 127 119 116
0.7417650087781763 0.4980087369086041 1.7411004190828938 152 130 119
-0.4396787774325982 0.4901758579706623 1.7443026432709527 133 126 120
-0.1110662527252985 -0.0606447423064588 1.8121480468522244 200 196 187
0.3903094366703431 -0.3890431216324772 1.8650037809838595 202 198 189
-0.5551440555897079 0.4910745805104985 1.7421252094631332 138 133 130
-0.4223581257015619 0.4964477061221712 1.7438327150387944 126 117 112
-0.3640205112141648 0.4994945856820841 1.7424481710699298 59 54 51
-0.5249062385212262 0.4983966305720555 1.7439743556711740 120 110 108
-0.1361242256544961 0.5062508985355333 1.7377106181267257 44 31 23
-0.0412811535681800 0.5041004245206493 1.7276695003468487 139 134 130
0.3902134640442394 -0.3562822980599313 1.8636601634839087 189 185 182
-0.7688927451325456 0.5031183470033457 1.7467743897339640 89 84 80
-0.7695694891120292 0.5033804365858503 1.7478250254831018 89 84 80
0.8284280928074500 0.1950120403872994 1.8102965395419437 175 167 164
0.8217198199384483 0.1906398680632994 1.7484509491581746 193 193 191
-0.3203311154529634 0.5198099404867463 1.7314306046800876 113 98 91
0.5495108557360001 0.2739493870551056 2.3390637235320000 137 135 138
0.5288804028995873 0.2784277194199123 2.3328760365522023 96 92 91
0.4774785076091492 0.2801026184579981 2.3447704409258185 100 96 97
-0.2604114200202834 0.5248709425289494 1.7182985003708826 135 135 137
0.8370892231167839 0.2284842837358112 1.7902960222467161 74 70 69
0.7211960083883259 0.4841278958348955 1.4637168930836497 163 164 156
-0.5885033863453314 0.5195605171734898 1.6186650433387653 253 251 254
0.6590801529155490 0.4875315432940717 1.4642292436782707 85 80 76
0.1613769766716871 0.4909684794328238 1.4783193692984935 227 235 238
0.4742116194756268 0.4878793088150203 1.4623459909104699 188 187 185
0.6535038924713227 0.4866689903989000 1.4503156974355447 147 143 134
0.8350206790505496 0.2535490267290301 1.8767001289274836 65 64 62
0.0566081374833171 0.4902482015551115 1.4641698126675073 151 162 166
-0.2562197221619965 0.2389472315151298 1.7669559805378547 79 74 71
0.5208251929627659 0.4887701163604024 1.4508437791572371 142 147 153
-0.3651236474766992 0.2395634741582331 1.7665337421518441 73 72 70
-0.2033257036806692 0.2418318417133625 1.7650838961132298 157 153 152
0.2131074941060178 -0.2475922103901717 1.7979115655127804 179 171 152
0.1404940651496430 0.4911214603734903 1.4598713890234583 86 87 82
0.1695082439677301 -0.2468840999452990 1.7973565203625548 189 181 162
0.4130140861190986 0.4903392944618379 1.4500066123502509 64 68 77
-0.3687616115110201 0.2427339225786255 1.7652033465645025 119 112 102
0.3962803074863103 0.4906022954627855 1.4500704982358346 86 93 101
0.5194164945443459 0.4901297975826499 1.4466213549293898 61 68 76
-0.5347132405130109 0.2453669833229204 1.7721759898852198 147 147 149
0.3007104626711668 0.4912987562435377 1.4503688795045726 185 192 198
0.7590312110548024 0.4921884813831612 1.4433455303776459 127 131 134
0.3243153137123784 0.4935967848681569 1.4528106276599699 49 50 54
0.3677348764138078 0.3328671322317125 2.3276712947097882 72 63 58
0.4107195108527781 0.4911054621062611 1.4456485466026610 150 155 161
0.4110246608869169 0.4917303030388895 1.4470764022402873 142 146 149
0.8290310885651682 0.2683086033839345 1.8402086569490874 63 62 58
-0.1117073099979022 0.4892148474276113 1.4496421134381665 75 75 75
-0.7367802623436639 0.2443162237828133 1.7547961932093359 141 141 143
0.1097173040111226 0.4933159821814505 1.4507369939152839 78 79 81
-0.2539669695476948 0.2557747281905320 1.7615420448645696 67 66 64
0.0038879699033953 0.4938849275401165 1.4524588401237857 176 177 172
-0.3088919701752937 0.2560686982400236 1.7628589621475812 81 79 80
0.3625342598717717 0.4948088186660901 1.4478414572416902 64 64 66
0.0876590305808137 0.4946856213951998 1.4499438003898895 56 57 59
-0.3670304504184666 0.2578743170946521 1.7729777310307451 85 84 82
-0.3379805932591691 0.2579553680512038 1.7665151967698465 98 92 92
-0.3925191507890486 0.2582367415704528 1.7668087559425745 68 66 67
0.2133664095816511 0.4956533524141595 1.4496716713558913 71 76 82
-0.4724435812177147 0.2575083026474384 1.7635424288547714 74 73 71
-0.7703979074392575 0.2572355227718091 1.7633264756218592 143 141 144
-0.1058453463692331 0.4945582259583561 1.4516443910623296 61 64 69
-0.0114190193317043 0.4956965512052877 1.4513566892145258 159 159 151
0.1665092288836911 0.4970344998040584 1.4495808796901637 130 135 131
-0.5081243822720151 0.2632872219666627 1.7739520000680034 140 140 140
0.0092503100145536 0.4968783661195246 1.4517773473647071 82 82 80
-0.3374172168497376 0.4949852817358305 1.4630421380584233 142 145 150
-0.1559321067346261 0.4946765302161881 1.4516115853181111 60 65 71
-0.1285383082884528 0.4940119350271477 1.4489975875398236 77 78 83
-0.0537853681879507 0.4957633788981635 1.4504973720038028 93 100 106
0.0125760122025323 0.4980204795179684 1.4529548143414592 76 76 74
-0.0029369406245853 0.4978062198453926 1.4505220093012139 130 126 115
-0.0122387519583844 0.4981715454361009 1.4515540301739558 78 77 72
-0.2732378483699740 0.4959641128469900 1.4565075363087594 177 187 197
-0.2657730171461645 0.4964332574566521 1.4574119713821259 183 192 201
0.1214190802441004 -0.2036187259772833 1.7952712935603639 181 170 150
-0.3373687603312318 0.2743386627050123 1.7630957048575941 52 45 37
0.5527263583712524 0.3678395949911657 2.3254711973185977 76 70 70
-0.2469369199188063 0.4966036463125076 1.4535848110812173 65 69 72
-0.3921629793331300 0.2746837753615349 1.7634900567823102 66 64 65
0.0541257294233988 -0.1552582416065790 1.7938811355435271 208 204 201
-0.3035908193551891 0.4961974193145979 1.4538586767797208 193 202 209
-0.0700167500165644 0.4993215708756344 1.4502335305026504 73 77 78
0.6288783912043896 0.5015299638328615 1.4429976094665857 131 109 98
0.0184427114000694 -0.1485942827664993 1.7925649996429760 223 220 215
0.2593706863686121 0.5035002235035009 1.4498211076255236 139 140 142
-0.2773803474889608 0.4987193724112628 1.4540406432679416 68 78 87
-0.5315263462962273 0.2781613296241157 1.7695614270843230 50 50 50
-0.4140341555071877 0.4971119760336006 1.4567748449297593 170 179 184
0.3460308319882339 0.5033213911550170 1.4466734245026818 91 91 89
-0.3646117187795848 0.4973181396227914 1.4531029462679228 163 170 178
-0.3088004191270707 0.4978636180402567 1.4515334147543542 112 121 126
-0.1064416853431234 0.5020463823851190 1.4505929130618240 104 106 103
0.2099635284585330 0.5049368740879966 1.4489978691923826 75 75 73
-0.2655028524821416 0.5007425682832056 1.4543453371168207 106 110 109
-0.6149375541026948 0.4976728727293973 1.4645474029472514 168 175 193
-0.7512634073904941 0.2833055591111476 1.7639177134609481 139 137 138
-0.3352591591931700 0.4994775858894832 1.4539808780742827 90 93 100
-0.2845010804232214 0.5005606810134453 1.4536358013273794 171 180 189
0.2598548485440472 0.5049458183247881 1.4465532811897361 46 50 51
-0.1097708026461390 0.5029765121446353 1.4500057418841281 47 52 58
-0.0084339085779654 -0.1052755370803012 1.7977297217829191 63 54 45
0.0627103623355069 0.5051769871593047 1.4486519588135991 168 178 180
0.0626024043438615 0.5053499248738974 1.4490331659988462 168 178 180
0.6195385994172534 0.5014087438790616 1.4275518088272481 140 108 85
-0.0635931955984494 0.5049171824424751 1.4502774290877474 67 75 78
-0.4730793867017307 0.2936386254622886 1.7603768001228832 64 60 59
0.5442650608646165 0.5005077309524939 1.4243015031014168 123 103 94
0.0382131220490513 -0.1593886791844202 1.8263301592884609 204 200 189
-0.1284720136346746 0.5049697838228020 1.4507515238917281 95 99 102
0.5300112231785452 0.4020674013487319 2.3164774896018643 94 86 83
0.5648744544558212 0.4994263255230502 1.4203792229746355 41 17 5
-0.2730345876506860 0.5035424373852195 1.4534357772050241 56 58 57
0.6665121890374682 0.5048335896585073 1.4306463825740621 61 37 35
-0.2261085723952488 0.3095370943903138 1.7578412149924747 68 64 63
0.3623805161601138 0.5082913611400701 1.4450692358017450 77 69 66
-0.1041872274127690 0.5065210567841048 1.4488302558756951 113 117 118
-0.2930861025567385 0.5047266896212855 1.4527622858945501 79 86 94
-0.5783191123910962 0.5013088632964222 1.4565762327329772 68 75 85
-0.2017894258442715 -0.0131078242188330 1.7852398466221957 193 192 188
0.6112917507295632 0.5023414171234546 1.4171590729088424 138 107 89
0.2170932903028823 0.5118034545099931 1.4507162862944201 68 69 71
-0.6803817793906113 0.4983183069771969 1.4497570849470220 202 207 211
0.4165404727756566 0.5075018065386505 1.4326042457052086 70 47 33
0.5502024445363308 0.5053914598494517 1.4204284181797850 58 35 27
-0.1643902592024834 0.5081982809692244 1.4475062706143447 54 50 47
0.4473650281783882 0.5056846345439581 1.4231460426764755 132 99 82
-0.2717814323252901 0.5084395460823692 1.4521183482759559 78 83 87
-0.5437959554931092 0.5033913826121016 1.4519981044430716 159 153 153
0.5141141788339230 0.5073170385462774 1.4222202937632198 98 79 64
-0.6666091199006271 0.5052389050617978 1.4579066219760350 156 152 149
-0.2966369433733085 0.5099332725411070 1.4525363014607799 134 139 145
0.2943853338657582 0.5153302415176082 1.4476511226051627 99 103 104
-0.4176833768725129 0.3295161754832772 1.7555725421453194 60 59 57
-0.5007208958645116 0.5067936768726324 1.4548663324741955 126 117 108
-0.3907004675016337 0.3308852150825126 1.7598283327312836 65 64 62
0.5463806665437038 0.5081697471525417 1.4184149324534403 65 37 25
0.2363622927629030 0.4424864559924200 2.3174256638989923 79 72 66
-0.3396517792343233 0.3324807947265039 1.7566512753615298 111 103 92
-0.4775184911573069 0.5076957168057112 1.4529179674222967 79 73 73
0.6573059957718005 0.5103644989565023 1.4200833358356841 40 17 11
-0.7022327811899316 0.5043609913799313 1.4519113636504561 69 73 76
-0.6886598810176437 0.5023425917030141 1.4472701973948419 92 96 97
-0.1894582613174640 0.5129377868376127 1.4498343055208476 81 76 70
0.8362889036798925 0.2007110464447587 1.8648612501692092 181 176 172
0.8999204523010912 0.1912382595248695 1.7674065113021000 184 186 183
-0.6169085613016848 0.5071038091874567 1.4541477186291927 56 60 72
-0.0662123706134675 0.5156538784291721 1.4486770245915075 65 66 68
-0.5053369036894876 0.3352863376518014 1.7587171436983937 137 129 126
0.0287967711065799 0.2538029438239853 2.3358164400179762 57 49 46
-0.1958248059723564 0.2553691716245267 2.3323733925439245 39 33 33
0.2496202971095503 0.5182910268929655 1.4462921975194953 104 104 102
0.5428175430460929 0.5094294169887202 1.4162067038850592 137 114 96
-0.2684834244951156 0.2061466403760865 1.7708127164715102 166 155 135
-0.2885921768043195 0.5127316584962410 1.4491929338875165 113 118 121
-0.2889584790660435 0.5132397637507601 1.4501725974366726 113 118 121
0.3056359563061152 0.5197498847150874 1.4483873982882360 107 107 105
-0.3747962011414835 0.2060380138347497 1.7682870615122748 201 201 191
-0.2645013510436239 0.5150476389944779 1.4523407274853934 109 110 114
0.4886990956803110 0.2640554721992286 2.2272776835482784 61 56 50
0.3028534231904208 0.2793458833779667 2.3377471873043207 103 101 102
-0.5222275577628471 0.2075707649745924 1.7732487429038553 186 183 178
-0.2809729569980339 0.3455926939739845 1.7549148667054379 56 51 48
0.2368225882827781 0.4585996906949509 2.3122910032954889 69 58 52
0.5276117619919463 0.5090972608280155 1.4131911698462090 126 103 87
-0.4286692000645999 0.2113117940970444 1.7829873752065801 54 52 55
-0.6314746613034941 0.2072088722483831 1.7705243052055970 185 181 178
0.2192111907452738 0.5194224740871762 1.4458629146132762 63 65 62
0.3610136868224159 0.5162692567565050 1.4342555133833581 44 24 17
-0.3892720473789756 0.3472121005827491 1.7552330361968926 68 62 62
-0.5220457192505379 0.2103999064869160 1.7705585907903827 58 53 50
-0.3670173722696542 0.3494005183139527 1.7638392463874715 47 39 37
-0.0855553087701461 0.4617689971599917 2.3153035163306352 60 52 49
-0.0631158436776634 0.4648162252160272 2.3240043281128631 66 56 55
-0.4303571644442551 0.5138431542524625 1.4515699860997118 118 126 128
0.2240524488747865 0.5224403531432379 1.4471707769058610 117 113 112
-0.6996675985692445 0.5086082144256425 1.4478124906999958 112 112 110
0.3606936681699494 0.5158231681956338 1.4252627611434026 135 112 98
0.7666911908259839 0.5217588486289328 1.4302493748172329 156 137 120
-0.4244580115742606 0.5163690538756106 1.4530190543235124 48 49 51
0.5511837571523278 0.2960298406357639 2.3344661281109249 77 71 71
-0.7517547722814824 0.2154942834965482 1.7704284754795074 165 166 168
-0.5838126808249912 0.3510838801673918 1.7565384025935509 49 45 46
0.4758821390772776 0.2954784842586120 2.3310761657165058 68 60 57
-0.1013064526491538 0.5216890131618076 1.4486076021331769 77 79 78
0.3905952375500573 0.5141367463961580 1.4138883853615152 169 139 115
0.4904062126934407 0.5101378196467987 1.4023879273003970 46 27 13
0.4741214004251549 0.4726142715569089 2.3003195781851136 82 73 68
-0.0740612944927798 0.5225875244303523 1.4482621637698891 49 51 50
0.5761797656075878 0.5102992723965453 1.3976268840512038 66 39 22
-0.7187290356832354 0.3513174280683407 1.7567598834753402 61 59 60
-0.2810100815591728 0.5200623751967415 1.4480864310997374 64 68 71
0.7244785776985284 0.5192923157139422 1.4161425576849767 45 25 18
-0.6962699900093279 0.3552402130469833 1.7563610069967288 130 125 122
-0.2162309128276617 0.5213931722727130 1.4458117955139613 52 53 57
0.6931759104742401 0.4810428124035933 2.3072772113747053 138 142 151
0.4799069671607069 0.5114741449162225 1.3986669643028624 96 78 68
0.8337380303589211 0.2414970165256999 1.7749405841337391 143 141 142
-0.2535635243969178 0.3633394140410258 1.7529947283765226 50 42 31
0.6394827180139021 0.4824084924241501 2.3067621558011138 176 176 184
0.5132353642170689 0.5138449883054492 1.4020079401674908 71 43 32
-0.1553890119740703 0.5227324368590285 1.4434674075198457 45 45 45
-0.0396209047964223 0.5272932949619487 1.4508543325309284 49 49 49
0.4075986371861896 0.5169883052230623 1.4096507861636542 92 70 56
0.1273518599493146 0.5268543027750133 1.4406986103033761 171 155 132
0.5254847029597297 0.5129834228197067 1.3952442851404343 106 77 69
-0.3656333254136619 0.3656571560081135 1.7573182047676479 75 71 70
-0.2707472244431320 0.5241768854612446 1.4477772336699986 106 108 107
-0.5184171681707447 0.5199659139794088 1.4496005579941773 148 149 143
-0.2531831725756044 0.2419985912216245 1.7671028135405960 131 123 112
0.4432840048760708 0.5167973006047275 1.4012576666355592 145 115 89
-0.2229333492315464 0.3677440900484270 1.7546316811274725 130 125 119
-0.3120334466969996 0.5256210522805383 1.4500527657630098 121 122 124
-0.3120569071633661 0.5257568772302463 1.4502091098993106 121 122 124
-0.4201426828147964 0.3661506305517890 1.7565114514119415 69 65 62
0.4758829845714720 0.5173978023709319 1.4011882298557878 98 82 69
-0.3042479483910042 0.5264302490436378 1.4503934616258698 46 47 49
0.4092956849522185 0.5178382351535235 1.4028671697785842 154 131 117
-0.5002982675977176 0.3678526262745770 1.7555641691143713 53 49 48
-0.2688925193479855 0.5279320652702770 1.4498961318215742 112 116 117
-0.5753857882697299 0.2441137839114673 1.7698901921155379 159 157 160
0.4381602243272292 0.5169817344951591 1.3971079980841448 54 31 17
0.6887988121059572 0.5194395709990303 1.3956319755617472 171 145 128
-0.5856363779598579 0.2464354772767053 1.7718994126789658 92 87 84
0.2311452711903104 0.4949897545641871 2.3058554972505343 60 52 50
0.2310226804078690 0.4954417281222330 2.3097256878352876 79 69 67
0.5637704997331376 0.5155109584463572 1.3813161899981339 128 98 87
0.4132432443429138 0.5210546373099867 1.3975909174633707 64 44 35
0.5538274921995509 0.5155280031820811 1.3795470455543899 111 83 71
-0.1470088223415265 0.5297796043167110 1.4301876382616012 150 132 120
-0.5304391421498924 0.2542183773864371 1.7714737817286781 69 65 62
0.4126183575319100 0.5224510390624056 1.3923396624323137 125 99 72
-0.2043143359237851 0.2596707110222377 1.7666002465575068 140 132 130
0.5055206258722795 0.5181065094011307 1.3800098098777605 97 70 59
0.5678000874205830 0.1550853011584819 2.3617376932572895 118 124 140
-0.3432537640845351 0.2615456555636425 1.7747989553355548 138 133 130
-0.2826501733365477 0.2612625706734923 1.7656150889563760 54 54 54
0.5878084445801710 0.2417698169665720 2.3266828392979644 60 64 76
-0.3354884291386807 0.3822376066015876 1.7517974010709678 62 56 56
0.5796573395259498 0.5191312089366502 1.3721721705078243 67 48 34
0.2616237289932806 0.3521448380500565 2.3292493855041614 77 67 65
-0.6073241183549366 0.5309754885390550 1.4461600772500229 54 34 35
-0.3103706422722379 0.3832181952963184 1.7528019603662541 60 56 55
-0.3650768972461980 0.3838401026394153 1.7530955505089627 76 70 70
-0.6633405959616366 0.5298217417314940 1.4441261337204747 110 110 108
-0.6000540437857068 0.5327673654868035 1.4472197496495258 114 89 92
-0.2515322345179316 0.3860127797612129 1.7535080707573021 143 139 136
0.8500241111816452 0.1920179814766178 1.7854493252081192 194 190 181
0.1445636143976276 0.6457448282594760 4.3026285509902591 84 74 72
0.8225558845638585 0.2012315207448378 1.7671075157232141 155 158 167
0.3977778103188714 0.5236669329988555 1.3681719954910319 60 34 19
-0.5375924443966024 0.5337496335778059 1.4217182104388182 142 138 126
0.6120208660840585 0.2695514228713878 2.3496730689384315 109 111 123
-0.6635693011423153 0.3864713809077837 1.7528826563189959 61 56 53
-0.5360421496179513 0.5328835951581146 1.4198363942168031 153 151 136
-0.5527048939564296 0.5327986151848260 1.4142802783670483 140 137 130
-0.3097751928140746 0.3998330510562789 1.7498433964891298 70 64 64
-0.3360669312929036 0.4015136646012228 1.7516542553041150 70 65 62
-0.4188501549042172 0.4010063584188137 1.7498996320148896 66 60 60
0.8622226154461846 0.2288950080527516 1.7862518032131409 85 83 84
-0.3910106350757108 0.4025299301850769 1.7518065192181582 72 68 65
-0.5217768297066471 0.4072730872513655 1.7507464245918565 146 142 141
0.8205743745767836 0.2478791345085948 1.8181027884489613 84 79 75
-0.2551368850133268 0.4189086312634877 1.7497478470871164 52 48 47
0.5559718932716496 0.3156511931757723 2.3444333640495412 69 63 65
0.3929883423956202 0.3131537423891132 2.3290391940543702 84 77 71
0.8870934005651302 0.2455530020244411 1.7779032590741481 72 68 65
-0.1472756972852152 -0.7051121007701364 1.8415780029490552 200 199 194
-0.5283498682328668 0.4232280045328036 1.7512882823585982 57 49 47
-0.3100825531398564 0.2393054476028728 1.7659659581756726 82 78 77
-0.0565203715659162 -0.7173452491905268 1.8892204373937058 207 204 197
-0.5887554579524822 0.2452462776244842 1.7671142283215062 137 133 130
-0.2248353257644119 0.2959624029666914 1.7630766774603670 150 142 140
-0.3035293520814605 0.2958569092927929 1.7620135776444674 124 115 108
-0.2865279453630283 0.2957736937398164 1.7626931770752332 131 127 124
-0.0104119750984269 0.3916049703824874 2.3271471168631090 71 62 57
-0.7442784469476414 0.2467932245483097 1.7686492783358418 141 141 143
0.8295001648312434 0.3252561587236390 1.8801537465845424 73 68 65
-0.4470055911016678 0.2996753565863323 1.7672919965645237 61 59 60
-0.3931132977028243 0.4413428420109237 1.7480712511380190 135 127 124
-0.2267104028514617 0.2567668328209978 1.7629843570618133 70 66 65
-0.2828652337766461 0.2578859338800056 1.7662093697768917 74 70 67
-0.5557161670220662 0.4413123948547435 1.7502248363210899 72 62 63
-0.5275072765912993 0.2578353536085800 1.7648555630818770 76 74 75
0.0500457370715960 0.4078898529522514 2.3212175674838367 75 67 64
-0.3888395554931626 0.4554749017761578 1.7458090030726905 50 45 42
-0.6930125832920794 0.2653360427411694 1.7665057111065663 141 139 140
0.8275747006366251 0.3397924853062165 1.8452820286710787 68 63 60
-0.5255840617307309 0.3133557783464181 1.7622935439899821 39 35 32
-0.3132233590328319 0.4602991923302274 1.7501784353475802 123 118 114
0.8263766932270696 0.4718195893506464 1.7311229120962737 127 126 121
-0.3100291019852611 0.2756638917826383 1.7629947321248423 62 61 59
-0.6617326966219941 0.3189140844406795 1.7624734834098923 148 144 145
-0.3378835422430269 0.4776615481784934 1.7445058872765993 133 124 119
-0.2030550175958893 0.3286950083855857 1.7618076064427501 55 45 43
-0.4745333896899245 0.3268573801202996 1.7616126328261263 77 72 69
-0.2618699555548535 0.3311230563207774 1.7581278810361809 138 137 135
-0.3206318222764702 0.4883351098410756 1.7439927138972655 132 124 121
-0.3380810851830599 0.4883746176467473 1.7457320977712207 128 121 115
0.6025192371441657 0.4983436259357873 1.7276560008402493 94 69 62
-0.2266342355092864 0.2930005821934710 1.7608368483705503 58 54 53
-0.2275883260182490 0.3411920064991060 1.7578063615774850 74 69 65
-0.2492387786166225 0.4957690123942197 1.7439489478838353 130 117 109
0.1807868601728848 0.5002370269264778 1.7418802268183091 48 44 43
-0.3647939010361458 0.2922936702249653 1.7599725973557099 61 59 60
-0.1980577511201495 0.4978081533151277 1.7424438428267619 69 64 60
-0.4193182007949020 0.2932166345933792 1.7619357125127373 54 52 53
0.8304835204536400 0.3828485959028332 1.9165391684197139 64 55 50
-0.3904405294466758 0.2937836211178720 1.7612203619695639 51 50 48
-0.4449122277617683 0.2947322327435654 1.7631700511908770 47 45 46
-0.5296278046268638 0.2948229947272082 1.7649901340278920 62 60 63
-0.5003719133531772 0.2952450914110972 1.7635886417342921 62 57 61
-0.5834797129597485 0.2953822198070866 1.7634776749021603 53 51 52
-0.2602358280795333 0.3509314265892801 1.7655770524123207 137 133 130
-0.4061000778599348 0.4975359478239823 1.7429813964742504 137 129 127
-0.3357443069851070 0.3507674339161934 1.7615244544608821 139 135 134
-0.1510364822440577 0.5026140922041946 1.7406060235871168 178 155 141
-0.4780444549698733 0.3523710188453082 1.7568121659718641 139 134 131
0.8307249026826841 0.4045705446144890 1.9613356689288555 70 62 60
-0.7477175342152563 0.2971540830019292 1.7628852059935600 60 58 61
-0.2579213100894592 0.5062763215319303 1.7417625565178694 136 125 119
0.8294069792244556 0.3188425351769224 1.7859804245792159 62 58 57
0.2054165875879685 0.4058347950354056 2.3191532231383158 83 75 72
0.6383691000509117 -0.4880247545443846 1.8162012278021629 201 200 196
-0.9364225802037354 0.5133517053740235 1.7835739646962621 62 51 49
-0.5790699662412790 0.5111757247668174 1.7439893779721398 114 107 99
-0.2559111929843587 0.3121851745146704 1.7635504015551031 64 60 59
-0.3364171489860282 0.3103860699035906 1.7571548193576376 56 55 53
-0.8688973069813815 0.4997951154852496 1.6913326564657090 37 36 42
-0.6152347976307225 0.3101932565543085 1.7634419261671350 142 138 137
-0.4980532028201984 0.3119706218640088 1.7586082474546358 84 79 75
-0.3660239568289456 0.5148339131860130 1.6745833591809178 151 122 92
-0.6079360569235633 0.3133250372007056 1.7580893171889294 46 39 29
-0.5847251265604718 0.3152950110739121 1.7640426884697391 53 51 52
-0.5553235734096090 0.5101248845201591 1.6107314953370964 38 31 38
0.5381770776049831 0.4871258077077317 1.4633344853210908 136 140 139
-0.7485524890572771 0.3169059470365403 1.7619613051720175 58 56 57
0.1803429556656488 0.4902563790246682 1.4681979693213756 95 97 92
0.5355299418904373 0.4911879914460842 1.4508265386921282 136 144 147
0.2869348983234277 0.4917789356643174 1.4528396529747751 169 178 187
0.6101623228011759 0.4940953434143587 1.4539033014527423 58 56 57
0.8241333611896481 0.3560910256483334 1.8182843404579294 58 53 50
0.2223510362043717 0.4913372652487932 1.4510518927897906 171 175 174
0.2223714811506129 0.4913268717597640 1.4510155434138881 171 175 178
0.1472660596353642 0.4921820634801324 1.4539375270128265 154 156 155
-0.6103430803580805 0.3336148403951251 1.7598256351784272 48 44 43
0.6989043997845884 0.4945768518709772 1.4474743018604068 73 77 78
0.7531118182100730 0.4940918124194170 1.4450148710222326 59 64 68
0.2302818225430332 0.4953435889632550 1.4499876939511347 110 115 121
0.6956059056089778 0.4967082268807723 1.4464955060102946 114 116 113
0.1000233481336341 0.4945744556652721 1.4504203469273036 47 51 52
0.1184648872499653 0.4944199345483472 1.4497946586796993 46 47 41
-0.7207497141256876 0.3349304265265242 1.7613414175884552 41 37 38
0.8515493673993353 0.3496337910516389 1.7489015131432184 73 71 72
-0.2264391627748601 0.3452236629585480 1.7549281285264591 41 32 25
-0.0917991341028671 0.4951738187255156 1.4522803160407363 175 179 180
-0.2555812998866155 0.3472007572610678 1.7579516882724842 64 56 54
0.4127279949525064 0.4993973560659016 1.4449566833912482 76 80 81
