ply
format ascii 1.0
element vertex 701
property double x
property double y
property double z
property uchar red
property uchar green
property uchar blue
end_header
-0.3328821447710151 0.3651890247393675 1.7564442603390613 41 28 9
0.0691408129030577 0.4960413892617098 2.3097034865351644 67 59 57
-0.1105924047674361 0.4903940992251453 1.4675142801106753 93 89 86
0.4272612006821532 0.4757971127849497 2.3143207886564681 78 70 67
-0.1430183651244028 0.4808808512276722 2.3185782703464821 56 51 47
-0.2256014082856068 0.3806390135334006 1.7513704990634282 59 55 52
0.0572251894148312 0.4902695251263706 1.4621710412273685 151 162 166
-0.5538106015095700 0.3849909180182803 1.7523950090387139 63 59 60
-0.4988699646222413 0.5001067116531588 1.4703008844438537 101 95 95
-0.7489596902217343 0.3886407938292273 1.7563540150746169 52 48 49
-0.0380690812266876 0.4924031674568872 1.4555723195211923 167 172 176
-0.3645032411283530 0.3997547236446380 1.7505600613521104 81 77 74
-0.2808322426519384 0.4003277242306989 1.7505242706917594 71 67 64
-0.4456506307467899 0.4023419832322381 1.7523241443390145 58 54 53
-0.1916851980645833 0.4978575514786052 1.4507576871957326 59 63 66
0.0005795365399738 0.4953550363072282 1.4506007532914200 114 115 110
-0.0496822585632546 0.4996988758896259 1.4502530134534366 70 75 79
-0.7710312338011004 0.4283992285811486 1.7514754426383452 129 128 126
-0.7735270035690479 0.4388292335310939 1.7539752554952330 133 129 128
-0.4534544237328165 0.5251035440274595 1.4518552612267812 76 77 81
0.4918828878030175 0.4583068865054306 1.7462140903944943 165 142 126
-0.6385373229147161 0.4767972839443080 1.7467488019780095 48 43 40
-0.7174686044910920 0.4922481125801658 1.7490279340066031 128 123 119
-0.3138541595050175 0.4953521092451948 1.7416397992695440 125 116 111
-0.5259858036618885 0.4993341875376544 1.7470297882591068 127 122 119
-0.4711686707264186 0.5087422434751929 1.7449849348776814 125 116 109
-0.5597815686870290 0.5161839379139244 1.6163131281019092 219 236 254
-0.5541612258390116 0.4999771775452995 1.4687470519274350 99 89 90
-0.4397522037063343 0.4995628576493497 1.4650773562693502 108 102 104
-0.6057015272342958 0.5048832656651863 1.4569793504608974 63 62 67
0.0514729290466330 0.5140200621358504 1.4476411624966936 56 58 57
-0.2144626554566482 0.5327903471357689 1.4464240676876061 56 48 46
-0.2222885113707943 -0.7055704399540629 1.8432278181090549 205 206 201
-0.1206158902828397 -0.6942605393009812 1.8374983788298200 204 203 199
-0.4307046353892975 -0.6910525831171453 1.8345054320952863 106 97 90
0.6600484582893360 -0.4888191443752510 1.8129750572154115 197 198 193
-0.3879442487263599 0.4931893275354718 1.4663985067138123 86 67 69
-0.1945714848416733 0.4952707429493003 1.4597671899468103 160 165 169
0.0103729058317003 0.4939340548065435 1.4553952993575479 183 184 178
-0.5524479048176770 0.5034563328502039 1.4582688949456042 71 67 68
-0.5449534591529503 0.5165809164924730 1.4573891837856476 111 108 101
-0.7508920596116404 -0.2108579013299278 1.7405116313094973 220 236 255
-0.4381265867333983 -0.0888941495605696 1.7917122843955293 143 134 119
-0.1222803821680939 -0.0545491559358357 1.7883921256180284 79 75 74
0.5534360590794171 0.1235488010178370 2.3390506597595309 54 52 57
0.5627557268913619 0.1513895870692625 2.3310887751149760 116 122 138
0.5878140436317635 0.2403544772790535 2.3209772925823886 60 64 76
0.6260497825340796 -0.4889220457492240 1.8141318413362952 202 201 196
0.6996178601904709 -0.4909265817287701 1.8127133438000094 201 200 196
-0.2259382944514947 0.2724105727000712 1.7599458710609568 78 77 75
-0.4415831397349382 -0.4253385346871272 1.8224137674682874 174 173 169
-0.2538581684710762 0.2909676735944018 1.7599753080285789 83 79 78
-0.4985622479557106 0.3112665454383239 1.7591728299598166 74 70 69
-0.3095174165662635 0.3469066798126806 1.7557731131273915 87 86 82
-0.2254117932786264 0.4168236537072175 1.7485293071160928 56 51 48
-0.3096813189938409 0.4189960403875849 1.7518155958689936 58 49 50
-0.6668072587766145 0.4422925179255344 1.7515581687396431 55 46 49
-0.3091168377592901 0.4560679695512035 1.7482981079762137 73 65 62
0.0037979809161121 -0.1036002044877141 1.7895067583659834 83 76 70
-0.4478709223334453 0.2389848037419668 1.7048925662585905 128 119 112
-0.1963772977335874 0.4526059188900624 1.8637638947814243 107 98 91
-0.1904896925677540 0.4828481053918882 2.1231741460770914 55 50 47
-0.2873561822638792 0.2646859393413846 1.7577949909572961 139 138 136
-0.2325689473007288 0.4439440484012112 1.7448834934525139 143 135 133
-0.2030532530086085 0.4427473829745682 1.7416413798794730 133 128 124
-0.4379599248245882 0.3399751358784287 1.7606507456508111 137 133 132
-0.0319330687584982 0.4977653626750482 1.4526026357002881 59 59 57
-0.6605522232875183 0.5211787232207854 1.4564015855226078 56 56 58
-0.1988472385534469 0.5300523778363693 1.4410259474525791 162 145 129
0.5086939026025670 0.4613488800894353 1.7627646066556224 162 141 122
-0.1918983707573267 0.2213723287368159 1.7940730571420800 155 155 163
-0.1135058085070844 0.4933739684356326 1.4602604854634120 129 132 137
0.3489769937354509 0.4605026668195841 1.7647620993077611 137 118 103
-0.1121293417977807 -0.0477590272721377 1.7976509518625496 72 64 62
0.5255495038527191 -0.4504146107007586 1.8079288044808794 208 207 202
0.4724914162038095 -0.4249814824390869 1.8130778731438715 84 76 73
-0.0393791091448634 0.4254484697741326 2.3238833143492941 49 39 29
-0.7089938300025290 0.5307431875358810 1.4574526485239556 104 100 99
-0.4416547824418654 0.5287799606211053 1.4516240974848469 43 43 43
-0.0381452225620436 0.4606546843855532 2.3161696942282783 51 42 33
-0.0383404722578078 0.4605024315530280 2.3162051723546373 51 42 33
0.4990150008414651 0.4559227291882223 2.3121554615235937 75 66 61
-0.4185669958722568 0.3473895119763420 1.7553390125997412 57 53 52
-0.3858527600978974 0.3506763138994823 1.7592958350207277 149 145 146
0.1006958669157637 0.4731212067978253 2.3132128469484918 78 69 62
-0.0187313296895587 0.4750040887323431 2.3132438551603358 122 115 109
0.2131602142901668 0.4950785634704400 2.3088610213457623 45 36 31
0.2247634967207132 0.4955494803936162 2.3114602632657504 47 40 32
-0.4224021411081345 0.3861952447569269 1.7528177002336065 145 141 140
-0.4673295788531817 0.3874872627777554 1.7571175919419362 141 136 133
-0.3111062647077679 0.4208883205114458 1.7481533695892524 118 110 99
-0.4731776520689980 0.4250531296826648 1.7502502521283105 69 61 58
0.3940454240358164 -0.3891151279528764 1.8085340275858037 105 102 97
-0.6916775565586920 0.4641172716611137 1.7511269049886957 142 137 134
-0.2938533184986965 0.4872052919473861 1.7419791260047650 108 96 84
-0.7503227145711452 0.4960060803317618 1.7514950630451218 119 112 106
-0.2586654978060857 0.4903663093038555 1.7439779576342085 54 42 30
0.2568647685235121 -0.2943618421392931 1.8053534371635043 65 57 44
0.0486547949447476 -0.1556932960697011 1.7956359136653413 203 203 195
-0.5871508712147141 0.5106415266368435 1.7447820555395583 137 126 120
-0.5815969337513450 0.5116882581832596 1.7459779601592413 89 76 67
0.4141905916694048 0.4989261229181641 1.7369044319089249 145 125 98
-0.4470658825042865 0.5134003080287527 1.7260653562785828 14 10 11
-0.2347706399686730 -0.0063527610061137 1.7900296192299570 219 216 211
-0.2216479947162384 -0.0060153356609276 1.7847285619988029 189 174 133
-0.2865433287958639 -0.0051592131199558 1.7883075101286583 182 173 156
-0.6464347503828202 0.5202222682854820 1.6255364145872127 44 30 29
-0.5090745655208946 0.2055125568861879 1.7667327266755237 166 159 143
-0.1773238073773211 0.4954592663863611 1.4537224822137591 51 51 49
0.0745719099672215 -0.1534879692740330 1.7966578555726314 101 98 93
-0.4441781764629376 0.2096335989402697 1.7715895556426751 71 68 63
-0.3273326091334463 0.4994205935267309 1.4548900365266777 149 150 152
-0.1174774263881886 0.2827079631737390 2.3364367415213909 63 55 52
-0.2414642802644460 0.4977658006805247 1.4531458249673082 150 157 167
0.5288850962100680 0.2941375327637781 2.3289992428586737 54 47 37
-0.6187687921561816 0.5076717697353327 1.4561785041364710 60 60 70
0.2783404596361194 -0.2931526874082143 1.8035395206686924 57 49 38
0.1542452841027872 0.4911190995278402 1.4512192654849185 123 123 113
0.2312309948075856 0.4897735702958402 1.4506620936696906 167 169 166
0.1252910798370885 0.2982164649983469 2.3294312687524985 54 44 34
0.1494449010747960 0.4934410660644781 1.4514905579070494 46 47 39
0.2976629322681159 0.4902330277068386 1.4508384447947515 161 171 180
0.0533363803480659 0.4973687375520381 1.4495405573145776 88 90 87
0.1622300821530409 0.4951243426600422 1.4496666752059519 45 45 37
0.0727314930378554 0.4978900966060828 1.4497721603523341 98 102 101
-0.4702533486891509 0.2430385870647042 1.7674390875793726 107 100 92
-0.0323235768696841 -0.1051999997981225 1.7917612430204011 63 56 46
-0.2983697676070845 0.5068819253301049 1.4530515097696655 72 76 79
-0.2963333206636440 0.5094286411359193 1.4520419343792303 106 107 102
-0.2809027283194840 -0.0054717275450963 1.7908729742029112 202 198 186
-0.0632909201444536 0.5071494934123419 1.4505695907708251 91 90 86
0.3407733394619829 0.3674455463547042 2.3208164191811984 74 65 58
-0.0613079585313706 0.3709503754886511 2.3244155477539112 70 63 55
0.0969228811080101 0.5088418001332813 1.4473341894441361 94 96 93
-0.2831291004921460 0.2053988577949845 1.7677956348969257 144 130 101
0.0748901408436709 0.3868074385065754 2.3162124717844650 88 78 76
-0.2755865276376781 0.2084367561820246 1.7709733282841995 66 62 59
-0.2605921837833946 0.2076216589243167 1.7642692046471589 44 37 27
-0.3521585572734128 0.2083716243888058 1.7699909332676618 53 46 38
-0.0664960516999621 0.5152885578984628 1.4488710484068152 72 72 70
0.4479328601840608 0.2953466594349553 2.3279608596818155 77 72 66
-0.1972311077392473 0.2485682540894238 1.9096767288812657 85 81 82
-0.2304834084264430 0.2402042732197772 1.7628263823334447 132 122 113
0.2071368375229160 0.4234663519246091 2.3191153358560088 69 60 55
0.3156088938287607 0.4218794798066150 2.3150933660952857 82 71 65
0.4230082880108754 0.4208572814392297 2.3173137392857805 58 49 42
-0.1465158402852002 0.5269630104900217 1.4469572823550274 123 123 121
-0.2858671884360034 0.5313899196656586 1.4454314714798973 54 50 49
-0.4450288346195865 0.3306679415535082 1.7583057871661412 48 39 30
-0.3091208207622585 0.2504593047517709 1.7639578704735692 86 81 75
-0.2285551834751856 0.2580966222093100 1.7603982185953324 143 142 140
0.2334458288085412 0.3501584662957777 2.3245070799727356 96 88 85
0.0727146555493570 0.3513255374389796 2.3240564294208852 76 67 60
0.1387683207855354 0.3507659334909474 2.3227758245271461 101 92 87
0.1745725769566782 0.3498117262395721 2.3200282687621669 77 68 61
0.3144756972325922 0.4575865680462855 2.3114580721980702 80 69 63
0.2293012700409705 0.3673943125959813 2.3183716458027082 72 63 56
-0.7469439943938027 0.2056488885967903 1.7689703197810156 134 126 115
0.2505822485626984 0.4772686713458419 2.3160478464200978 54 44 35
-0.4989985115630118 0.2776660821770158 1.7600437630721004 121 115 103
0.2648876467284270 0.1927188285208985 1.3170769670318159 71 62 55
-0.2807690820580654 0.3643990383230462 1.7548707986056380 47 37 28
0.3801987407237186 0.3856647612906351 2.3233749878469587 77 70 62
-0.5286383885509723 0.3664526003196509 1.7537631885102605 34 27 17
-0.4449737272612538 0.3667031098453878 1.7550028443813199 47 38 29
-0.4464925996092750 0.2958274500377195 1.7591708602497242 122 115 105
-0.6066605134028988 0.2984391999318066 1.7628003485874251 124 117 107
0.3392398981869327 0.4928821781850558 2.3104435888360584 61 54 48
0.1308881492183600 0.4058013906929255 2.3209614163105758 53 43 33
0.1308505231624201 0.4065492265064257 2.3224456203722843 89 81 78
-0.2015121653843217 0.3064258721748233 1.7563482694069714 134 127 121
-0.4104470519122655 0.3863148555507955 1.7526296310423957 119 109 100
-0.2516603579233230 0.3126687360486367 1.7587481050312026 117 109 98
-0.3070527445260668 0.3132194518436304 1.7591857383847791 117 107 98
0.0193904120712588 0.4236320665743433 2.3179555320262013 65 56 49
-0.4187979200585112 0.3114611162697981 1.7586215012492672 46 42 41
-0.3092113334808317 0.3268140662435620 1.7554242900222048 51 42 33
-0.4476910123809554 0.4416491542038262 1.7468818176716236 116 109 103
-0.2059551336163747 0.4555501618627313 1.7426620244037034 115 102 93
-0.6372371200791431 0.4761512794701590 1.7441913616136424 45 36 31
-0.7703514195745599 0.4823667729547335 1.7451271245683240 114 109 106
-0.2548101158441611 0.3824534290248518 1.7533362153790213 54 47 41
0.5218357344266781 0.4986192277955172 1.7347707144611699 83 57 44
-0.4186335590423974 0.4202162644723153 1.7513052837993073 82 76 76
-0.1980259029895438 0.4993881131816932 1.6326818254795843 46 46 48
-0.3891782005647694 0.4378743013535188 1.7497814993063761 35 26 17
-0.6367721930276041 0.4395388079443102 1.7482490399977506 37 28 19
-0.0579372625314416 0.4922519876151066 1.4631638261321491 157 157 147
-0.6689677675702035 0.4452676410435045 1.7472130397917112 143 138 135
-0.0007512408355752 0.4922453160622295 1.4517246647961064 149 151 138
-0.1915990968885618 0.4978479431354546 1.4506373363734766 55 56 58
-0.6101190109826902 0.4777072578958720 1.7477409869564529 53 44 39
-0.4989208278125535 0.4762947593827126 1.7459899737561588 55 46 41
-0.7210897607320589 0.4788690450978128 1.7476041214749101 57 49 46
0.2449896815758410 0.4893028115861141 1.4509642668862879 177 179 176
0.0612454480825723 0.5017999555506760 1.4495565337404330 95 105 107
-0.5596355429885282 0.5359897156279186 1.4338932595215432 56 55 61
0.5540597696060385 0.1462328276426281 2.3373573099239260 42 38 39
-0.3296892175000579 0.4428345144770532 1.7498736300587237 115 105 93
-0.7482186227199237 0.4618885503652366 1.7487893333871571 57 49 47
-0.4234028049290861 0.4683568386521320 1.7435646439237944 126 117 112
-0.6381817301753506 0.4964036892942135 1.7469622535280276 67 58 51
-0.2491009796474187 0.2482573478239151 1.7766308580173202 150 146 143
-0.2933022577851666 0.4966225927411179 1.4571659084762072 181 183 182
-0.1273249718920245 0.4971837815503729 1.4533338483113381 48 48 46
-0.7441184464935438 0.2519306647710480 1.7730364108544292 118 111 103
-0.2465329921192759 0.2830265321388160 1.7639223894943137 129 122 114
-0.3830534773786107 0.3020587306138928 1.7637626475857324 133 128 124
-0.6622090066601739 0.5070471070070603 1.4597782135418944 81 77 78
-0.4802219839548869 0.3563597385508520 1.7506898129143826 125 120 116
-0.2056795801253246 0.3903257972293857 1.7490010652452037 120 107 98
-0.2078236012294000 0.0144375909015439 1.7740067245795463 157 150 132
0.1657409701086006 0.4923923455241233 1.4505620001651633 53 51 39
0.0007938663084894 0.3523067242945341 2.3251498183828594 51 43 32
-0.4462874251058022 -0.6952828456927657 1.8484982524678790 177 170 160
-0.1459748516261402 0.5286273485985491 1.4283841957028716 129 111 91
-0.1462800726284366 0.5287975224996903 1.4286521085477668 129 111 91
-0.2052756204525026 0.5302738059366284 1.4132701753528969 134 106 84
-0.4937055430131197 0.2936477189182166 1.7616983089735756 44 37 29
0.1666194547644790 -0.2445734411092486 1.7974399714643836 183 175 154
-0.5477543326951393 -0.7008885294805264 1.8505674651609934 108 103 99
-0.5290280277674466 0.3152131436218915 1.7566859441711260 113 104 97
-0.2493024787258387 0.3096327938123712 1.7586905345988633 49 40 31
0.3361987846020568 0.3853869655382084 2.3194784168809450 59 50 41
0.2116195611441931 0.4047072172274194 2.3178787785679438 58 48 36
-0.4967122618680677 0.3337975062154681 1.7587006600549988 118 110 99
0.3097793412920613 -0.2963140001550272 1.8004590779935643 159 152 136
0.1589637093329896 -0.2039284755863622 1.7927455244962816 175 171 159
-0.2234225046089732 0.3455186016824769 1.7557809270486557 47 38 29
0.2401144040025420 -0.2917381266135660 1.8007092969990981 177 166 146
0.3626304938094468 0.4582345401660975 2.3193477006264240 57 47 38
0.0756482511723506 -0.1558818530771409 1.7924644722881402 183 174 157
-0.0871538135366772 0.4983802023701779 2.3185971081089156 43 34 25
-0.5256220475417266 0.4038860580914603 1.7543436862045623 38 33 30
0.1907084924779669 -0.2483080695631016 1.8015772961712464 170 161 144
0.2012541641455375 -0.2466041324347517 1.8040800220888089 64 56 43
-0.3045852048523870 0.3998139655785903 1.7510518258530077 54 45 38
0.2396933478543660 -0.2461395948627539 1.8011195330570091 58 49 40
0.3565367087842466 0.4954427237020976 2.3161601131371023 47 38 29
-0.4587781040257727 0.4203517721707584 1.7499684364230286 35 25 16
-0.1997341439161981 0.4408869271820354 1.8236782437438659 34 26 15
-0.1996639583035924 0.4409452616421343 1.8235521977763429 35 26 17
-0.0159960330078422 -0.1077067928101049 1.7904982344889369 170 163 147
-0.7490165021510305 0.4745517552848490 1.7443461360735057 97 87 78
-0.2014251288947766 0.4555989281630504 1.7626607697436008 34 25 18
-0.2006400704219643 0.4643883543751495 1.7445627736353186 106 92 81
-0.1308467649223517 -0.0149653094199205 1.7824602921715913 181 174 158
-0.7688216946490737 0.5041810444822604 1.7283911511679459 78 77 82
-0.7660557686795968 0.5057935861279190 1.7302631240966517 21 20 16
-0.3165935331943309 -0.0046037500753344 1.7859792959758212 206 197 180
0.0917827883054312 -0.1532641251403299 1.7942833030998586 59 52 42
0.0602642864495254 -0.1562180770575162 1.7954203159270603 164 149 110
-0.6185311366983860 0.5142472365183134 1.7321379435867745 164 164 162
-0.2539463030054611 0.4974073021623724 1.7434628754497585 47 35 23
0.5679287020645299 0.1582808923098479 2.3384766995692465 26 24 25
-0.4197727810155208 0.2049382403016912 1.7680959077521570 163 154 137
0.3152318873621204 0.4595352731479593 1.7602645095853060 77 58 41
-0.7021062448896669 0.5195974926069682 1.6220826569568096 211 190 159
-0.4758274003147688 0.2089411580092249 1.7679434758570580 48 40 29
-0.3247490932752203 0.5166042398417016 1.6766658618264245 143 118 96
0.2616680700155587 0.2957392124320675 2.3265777730531476 53 43 34
-0.8494957235100582 0.5029637338305443 1.4749327914322838 175 172 167
-0.3220914143287268 0.5226478210156033 1.6808642010591559 90 72 58
-0.7823192886411423 0.5051875241481608 1.4592231657014390 67 67 65
0.0896408569033556 -0.1566148661183400 1.7936117887593648 176 169 150
-1.9691534456142459 -0.2552316482168068 2.4832144776238638 182 190 211
-0.5774163959206038 0.2571078218754283 1.7598591791627862 52 45 35
-0.3634409174807495 0.2557074214438962 1.7626727985446795 60 54 42
0.4486682582317190 0.5008552229040857 1.7370718935218126 37 27 17
-0.5207526860533660 0.5142460111782753 1.4537130795748678 105 98 88
0.1268395530003484 0.3338210584235479 2.3273242231920586 51 41 31
0.1794561389400536 0.3335276213210946 2.3302226307910843 62 52 42
-0.0886844530044692 -0.0569322140595969 1.7886351937381724 66 58 47
0.2593842619802528 0.3331238102595631 2.3323245233724075 56 48 37
-0.2046667458187975 0.5018932530707944 1.4844595126995070 122 121 117
-0.5531946930184738 0.2754373396129460 1.7607441544234450 49 42 36
-0.1096163945580782 0.4914089169043107 1.4701407001648248 71 64 56
0.4695264262553109 0.3314437514230228 2.3297146427984785 56 48 37
-0.1521774075762966 0.4925220800982115 1.4536975901652254 54 53 49
-0.1080716343057764 0.4923667509036844 1.4665345304828179 121 121 119
-0.1916374158240298 0.5015696370203572 1.4522933389567099 101 100 98
0.3162956275747550 0.3502685029549256 2.3247107163649430 58 50 39
-0.2874842952878193 -0.0136444639404397 1.7896226030631244 173 165 146
0.3087167888051876 0.4947123758249418 1.5643847114915148 49 42 32
0.0379825656071121 0.4904174578869996 1.4617503307858579 146 147 141
-0.2014846384272246 0.2944469003685887 1.7580237487331545 118 109 100
0.0532660515328737 0.4919797355727344 1.4509042578513669 152 154 149
0.0899527154761458 0.4901744715454228 1.4530411522077327 160 161 153
0.0689519891019446 0.4928596544874736 1.4508302367112085 82 83 78
-0.6605679707915860 0.3127156836545870 1.7560279627735966 48 41 33
0.2060001742500929 0.3870518607039464 2.3206795884678950 64 54 44
-0.2010513511958137 0.3271711971997364 1.7572114769447227 51 44 36
0.0462516429165488 0.4246320297716437 2.3196819307663255 51 41 32
0.3118347156647885 0.2460558083053413 2.3351924023658790 124 112 96
-0.7462021517266966 0.3517357117267811 1.7554358625417101 57 52 49
0.5514068545109605 0.2460498011067330 2.3340728660106160 55 45 43
-0.2014420292859265 0.2202712156685740 1.9576377296599561 113 101 85
-0.7475569936448578 -0.6980770195815262 1.8486767755794997 255 255 255
0.1802072529257502 0.4224202154123534 2.3176411677115047 62 52 42
-0.2008354293616537 0.2075495966266307 1.7681079555309083 46 37 28
-0.4770188100128164 0.3515093225959675 1.7541332643137060 108 102 90
0.3637528815395605 0.2955183013889839 2.3272513788844984 54 45 36
-0.4745696845787664 0.2415763008195832 1.7624622170419106 114 106 83
-0.2866448183551497 0.2379405422720124 1.7641442677111883 67 58 49
-0.2732061380878719 0.2405614630506630 1.7651198903226260 134 126 115
0.1815368093307053 0.4418836181413106 2.3206037311647854 53 45 34
0.3932789418291985 0.3078568485553397 2.3283184431765482 44 35 26
-0.5827700332261998 0.2549026460273436 1.7603267654394346 134 131 126
-0.4182608413484576 0.3647116788141201 1.7532213994692603 67 62 56
-0.2812875577350176 0.3644931325906042 1.7551790639802654 46 37 28
-0.7165182700854835 0.3858102518532128 1.7513115842750211 39 30 23
-0.2531090948872659 0.2593860679330524 1.7661338645901434 131 122 113
-0.6630631882545347 0.3855904962428551 1.7525423648760894 55 44 38
0.2071388077878218 0.4594515440137813 2.3170995450943894 56 47 38
-2.7024696902228920 -0.9664601340159763 3.1700280835492554 120 127 145
-0.6906166775683252 0.4041216588286885 1.7503493900725289 45 36 29
-0.2503229994973618 0.3848256274455484 1.7513075003595486 123 115 104
0.3076447632770116 -0.2943036774155506 1.8015337362477701 45 41 30
-0.3588697462404863 0.4005589902879522 1.7517561263187162 51 36 15
-0.2577487380703914 0.3956456419322950 1.7487784943509119 117 107 97
0.2045214643615786 0.4962403140098098 2.3124955618978951 52 45 39
-0.2056075649832744 0.3998868701458392 1.7513436831168927 53 40 23
-0.2014589504648791 0.4000112985100771 1.7524984037161953 34 25 16
-0.7705929308037016 0.2780840391369406 1.7587503143719634 38 34 31
-0.1971340943888978 0.4242797295492646 1.8550989464325180 67 58 51
-0.5542606494602148 0.4210301642489025 1.7491329683813723 51 41 31
-0.3859942281263375 0.4155600883786889 1.7499982063737565 104 96 85
-0.2806828957534013 0.2729368571970068 1.7601927823449108 38 31 25
-0.6100211125579307 0.4409531899703329 1.7492324626626354 41 32 25
-0.6374485883284301 0.3140322767395391 1.7609068031778217 36 29 19
-0.1998953321647022 0.3092845736741412 1.7593805522530017 48 39 30
-0.9190825936611384 0.5014025968629170 1.6627924873354414 76 59 49
-0.6275832400770092 0.5142821542299072 1.7423261403210550 43 36 30
-0.2183768755465275 0.4909636731668192 1.7445696114318840 50 37 18
-0.6076910728531940 0.3493679776094728 1.7551925280932963 48 39 30
-0.4333168701077682 0.5136270966189289 1.7361702146284250 197 197 199
-0.2600552679935837 0.5240324430181952 1.7161976681645135 79 78 74
-0.7187652332911948 0.3701796377947258 1.7556332342132339 39 32 26
-0.6681276066338077 0.5013923417113512 1.4729629075333355 156 152 149
-0.8347604708384603 0.5230368604924767 1.4561117776015291 49 46 41
-0.4528159025692806 0.4972971649690511 1.4608004548007822 176 176 174
-0.5833643744066879 0.3864784184147890 1.7533095434082306 38 29 22
-0.0688029962640988 0.4949061097857975 1.5027141587340158 202 199 182
-0.2027829585201640 0.3773451420472348 1.7519376924464796 119 109 99
-0.5276777580993850 0.4028504323151218 1.7510245160234987 41 32 25
0.0770784691857767 0.4914808468536958 1.4585647241094093 61 58 49
0.1674465413596447 0.4912566807782492 1.4784098907110665 215 222 230
-0.4696335981659851 0.4256962843382439 1.7524377203127655 116 108 97
-0.2291221983959306 0.4130692039815405 1.7471239320049479 123 113 103
-0.2004883866145166 0.4178420078712884 1.7514366715844143 44 35 18
-0.6404178231821520 0.4713378801576374 1.7427011026892281 112 100 88
-0.2526800127197709 0.4546910850195272 1.7463518392513200 42 34 23
-0.5529549043603269 0.4770106981717763 1.7462610520707225 41 31 22
-0.6038071361349806 0.4909677951372747 1.7474051330747653 106 93 84
-0.2745173245587901 0.4768502977437578 1.7460432936026611 112 100 88
-0.9187745286709224 0.5065988622693914 1.6652066795617650 154 135 121
-0.3653052257005995 0.4927985763354273 1.7459418686603729 43 33 24
-0.8957820856599119 0.4887849262659418 1.5584813713309587 35 39 38
-0.1586257235095151 0.5014694710204716 1.7401862285995529 157 121 89
-0.2046405417417079 0.5101167265194506 1.7386827159491689 208 209 211
-0.5581444356945214 0.4980007331717157 1.4685643015593806 139 139 137
-0.7356125451153653 0.5203466857534267 1.4535857873085660 96 95 91
-0.4314161337996254 0.5008328358410363 1.4556135899814433 168 172 171
-0.5165404453999924 0.5142986831441022 1.4546813985721487 55 51 42
-0.6011775489785287 0.5323382112763320 1.4465689441978011 109 88 87
-0.0837740137655907 0.4928353507909551 1.4694640658798912 58 53 47
-0.3305175907036832 0.5323354266865877 1.4422147899023368 95 82 65
0.0135452576012405 0.4971727845525043 1.4517236803576530 91 87 76
0.1224939388358556 0.4882873032724346 1.4570365280180109 75 75 65
-0.6038030719197139 0.3423703963607368 1.7632152346820187 115 107 96
-0.3058318245276004 0.4348291630800424 1.7441155432193067 46 37 28
-0.5054968522310140 0.3386652135517333 1.7507916544978219 124 116 105
-0.8680573784068806 0.5064107081055801 1.7985437619267768 45 41 40
-0.2787931084025411 0.4533443816440041 1.7450038612396495 45 32 23
-0.7185186288556697 0.4960727592120783 1.7447714277120365 39 30 23
-0.4606784068755728 0.5021813460810979 1.4559272904254188 41 39 40
-0.2747751774559736 0.4858834819751441 1.7467145402288995 107 95 83
0.0094841188047345 0.4944881514900399 1.4567090030318144 149 149 139
-0.7654576855108151 0.3610743283674709 1.7571129779817141 102 91 71
-0.5538573221067823 0.4990795911889342 1.4748408109078111 83 72 70
-0.4842249036430895 0.5000100427154520 1.4578782539035231 146 145 141
-0.3416766081359625 0.5012132745293927 1.4536832598564942 41 43 42
-0.1339561469461392 0.4937192597939702 1.4547477549336232 82 81 77
-0.4381731668346706 -0.3096002560398682 1.8093927937211700 139 130 115
-0.5210231433891931 0.3588320040505696 1.7592565620810359 118 110 99
-0.4399173676900737 -0.3036855061593012 1.8109867730418130 122 113 98
0.5230346970470299 -0.4417296469384277 1.8118874234988942 189 181 160
0.1302305958601927 -0.2063929510850339 1.7990263851604364 151 143 124
-0.4379843911863647 -0.2295005052901607 1.8033842782071698 141 132 115
-0.4384178984738821 -0.1965556649997724 1.8011303875175548 137 128 111
0.0425330671429066 -0.1561190735768467 1.7936708548833473 167 152 113
-0.5033241145946195 0.3742612684107205 1.7468201539222397 117 107 97
-0.4388317765421993 -0.1423230009848459 1.7961088215687888 141 133 114
-0.3951059889762080 0.3733823192161755 1.7488794602087259 131 123 112
-0.4387033387025561 -0.0574637702034359 1.7893644938729127 147 138 121
-0.0579732423563370 -0.0607924886182857 1.7848672221616027 191 183 160
-0.7735439988375219 0.2402441461044983 1.7620682702457373 42 41 37
-0.2381660051224589 0.2998801813044031 1.7562080251264551 114 99 76
-0.4519070185546622 0.4101457766614909 1.7470131971663811 118 108 98
-0.4519490065202114 0.4101860725004037 1.7470512958879498 118 108 98
-0.7406675178839099 0.2886497903233448 1.7672222757475937 116 107 100
-0.5878830991337327 0.2849057187030590 1.7565129128560468 124 117 107
-0.4664605963020191 0.4311339295218073 1.7542430359541963 113 103 93
-0.6686232182295725 0.3034620371035172 1.7528504144738011 119 113 101
-0.6600756717082142 0.3066395001827580 1.7682684831315005 125 118 110
-0.7131496961877388 0.4522506245849566 1.7533982916912145 107 97 87
-0.6052588783956622 0.3060505320895098 1.7693074000395781 116 110 98
-0.3118512949899854 0.4240206024085725 1.7381026953667333 118 108 98
-0.4506457419278934 0.3012161137060195 1.7547815255736401 118 110 99
-0.5493860770656620 0.4511045711435307 1.7545645944865065 109 99 90
-0.4499944919277375 0.4457911685656779 1.7412246917228864 111 101 92
-0.6881217073626155 0.3254813369628256 1.7660077022591167 119 112 102
-0.6417775338371255 0.3219341941907878 1.7520635225160914 122 113 104
-0.6321132741972197 0.3244470462510711 1.7662455795327192 118 109 100
-0.5872182467183712 0.3210359723516049 1.7514249034488383 118 109 100
-0.4790192499307393 0.3196176776283883 1.7525649363084344 122 114 101
-0.4669796369032509 0.3223548833472337 1.7644760814494695 120 112 101
-0.4240322137465354 0.3190240041460551 1.7520202228937807 119 111 100
-0.2873606313359452 0.4445845344009774 1.7433044881076520 118 108 96
-0.9303689729137925 0.5136282866916276 1.8022451311634493 154 141 122
-0.7711400280039621 0.4906530983737643 1.7509963761040597 101 91 82
-0.6147381173620754 0.4836993513810244 1.7391261769057942 109 97 85
-0.2603820800867166 0.4626489290805108 1.7423865708799819 111 99 85
-0.2457604755469593 0.4643692098599723 1.7494462735403646 117 107 95
-0.3405100696914461 0.4811421738489182 1.7401322991186448 107 95 81
-0.3259260542022452 0.4836674467828003 1.7487917303743683 111 99 87
-0.2868044414540648 0.4807725713690520 1.7409067245479455 124 114 105
-0.6929699397244103 0.5009447827352358 1.4606420942971456 182 183 178
-0.6207496093266811 0.4982656504992002 1.4602853585244051 156 160 163
-0.5673422246725371 0.4982076052738440 1.4636878314620283 157 157 159
-0.4956529170431817 0.5039744463182170 1.4570844995276671 55 50 46
-0.4395322996248095 0.5042854159105182 1.4541232328503901 49 48 46
-0.2053395678284149 0.2453878163579321 1.7594098472055186 123 115 104
-0.2040902319145241 0.2635890066871742 1.7555773515244490 111 105 93
-0.7867667319807947 0.2612242389053895 1.7697749329397512 52 50 51
0.2821351410627194 -0.2983900032678081 1.8005481309475828 178 171 152
-0.7787244379497165 0.3332606092081401 1.7540991594963027 35 28 20
-0.2042976611005911 0.3715658933215032 1.7484505760748015 118 108 96
-0.5128488174285791 0.4967916931706892 1.4586915648413030 190 186 177
-0.4375307112021052 0.4503616061093576 1.7562057715929296 116 106 97
-0.4372301255138620 0.4500728592984191 1.7557812508137873 116 106 97
-0.0567982166456980 -0.0951457711233493 1.7866854949454849 185 177 158
-2.7201418979905609 -0.6506940209662048 3.1166136170448988 102 107 129
-0.9024835877361520 0.4832098467441013 1.5579279692664600 39 40 34
-0.3911132543295232 0.5087833317099320 1.7404908264979313 109 96 88
-0.3007378798122914 0.4990266734231088 1.4614379233803014 188 190 189
-0.0358840203111902 -0.0955148270900010 1.7997599353781859 54 45 36
0.0801190931814032 -0.1713260154827857 1.7891503472283861 187 179 158
0.0076481955046363 -0.1227883837167820 1.7828221127581203 177 169 148
-0.0656618850950415 -0.0745674653963138 1.7811788727770244 187 179 158
0.3246221288429929 -0.3337678680917091 1.8278913035759028 55 46 37
-0.7194012582296312 -0.6596354801705211 1.8434479504764110 155 159 171
-0.8215544005832384 0.4950503599682236 1.6179512181236211 49 39 37
-0.4451546442377726 0.2057715974597090 1.7660943239844751 171 163 144
0.4752727078632776 -0.4385193027619704 1.8097927052179978 179 171 152
-0.2319255547635843 0.2048229982962778 1.7651112242161566 177 171 159
-0.2189833450981876 0.2051139566544001 1.7676548176856619 178 167 147
0.4410666601499639 -0.3913856034855471 1.8059462962654436 174 170 159
-0.3029539761669069 0.4916003681933852 1.7454382208235748 59 48 42
0.2327287831154892 0.3138155866378350 2.3273158083067265 54 44 34
0.2915398029410608 0.3319832865102764 2.3265544075076203 70 61 54
-0.3884332371981292 0.4976707889986580 1.4603144565303376 175 179 180
-0.2259382969246133 0.2688533719578160 1.7611191964721489 60 52 41
-0.5173628851849920 0.5146687187940009 1.4552218334522915 55 51 42
-0.2378148140073329 0.4933078736776449 1.4648913412475413 147 149 148
0.2040807517312885 0.3500435550099595 2.3240726485068084 57 49 38
0.3211692139770702 0.3678868691792607 2.3244291525377929 56 46 36
-0.2871234586128786 -0.7023150077144121 1.8424031355764967 177 170 154
-0.4767935075950415 0.3476797224319699 1.7533323244602046 45 37 34
-0.0202686792147031 0.4434769386429859 2.3229807612723126 52 42 32
-0.3665135635259535 0.3495549192010459 1.7534359587329442 110 101 92
-2.7120128389568010 -0.9826755561270080 3.1848319095323578 122 128 150
-0.1964324205196709 0.3909784376450362 1.8834228398755206 48 38 26
-0.3156236418133745 0.3819159038231701 1.7516021354132583 51 43 40
-0.2277071056869232 0.3778168248645373 1.7500378725746815 118 108 98
-0.2037049174574287 0.3441565556553201 1.7531977718519691 50 41 32
0.1810991821106383 0.4970083377645189 2.3157131294549793 40 33 25
-0.2764001501694776 0.3998789061108136 1.7514494726063239 69 60 53
0.5020138487916390 0.4852080539180962 2.3349045362842835 47 38 33
-0.2787725452573714 0.4030825798084189 1.7520401451437475 120 113 105
0.1157344258645367 -0.2031490120578218 1.7940333883215793 182 180 168
0.1227769463158090 -0.2006665121213814 1.7945537147445803 56 49 39
-0.2761925005202415 0.4550808637678509 1.7480821421128914 36 26 14
-0.5281023130899281 0.4743745379317293 1.7402962897332532 49 41 38
-0.2001986458299881 0.4540033012901447 1.7485313746916367 37 23 10
-0.2675693973430989 -0.0051883324263640 1.7815639332870845 210 204 192
0.0346190105027597 -0.1549454860500986 1.7913383423850480 184 177 167
-0.8936348368459875 0.4811044540821282 1.5580249005037854 36 36 34
0.1407079406381119 -0.2040346615239108 1.7944103039103336 171 152 112
-0.4695914817338150 0.2053063163248140 1.7682838771139635 169 160 143
-0.3005897862692959 0.5149489519749830 1.7342339873734289 29 19 27
-0.3248796676695817 0.5164901267161437 1.6768239979209676 149 126 110
-0.5217703792000844 0.4993336975267007 1.4585278629206979 187 183 174
-0.5259265313611973 0.2568107023096032 1.7624856079185607 50 43 35
0.4228272755090602 0.4995634864770162 1.7333595645819373 132 111 90
0.4244927315543701 0.5003832465687469 1.7283081626892252 46 25 8
-0.2793675615008878 0.2558663542471099 1.7603970382107599 60 51 42
-0.4457890987185004 0.5018834393218573 1.4548214205601173 126 126 126
-0.1990943512104784 0.2551594969760071 1.7617533116520012 57 50 44
-0.7453529790421164 0.2959877066869592 1.7599657459808842 45 38 32
-0.2114405296967370 -0.0133044449151248 1.7850433861769963 181 173 154
0.0208071927114683 0.5077721778091420 1.4498754390625634 33 33 25
0.0710093599384612 0.5013596985652500 1.4495262474447843 135 136 131
0.0703651267367618 0.5136989289033871 1.4483638668313903 90 91 83
-0.7721138421396626 0.3379669746045754 1.7607841197496432 122 117 114
-0.5809592697226995 -0.6948644174662552 1.8339213537725831 183 183 183
0.2874549114054994 0.4052711002928693 2.3222162283338492 63 53 41
0.4945107925242636 -0.4379006955846463 1.8087952357077353 183 175 154
0.4299252489783077 -0.3915603341167894 1.8061625043267331 180 176 165
-0.7708314554842070 0.3562816627091281 1.7579392129162357 105 101 92
-0.3646881799406232 0.3474116359717377 1.7565093614918339 49 40 31
-0.3610711367376750 0.3505981638544202 1.7569687666838034 109 99 89
-0.3121567849101527 0.3486830704144115 1.7530274707771933 117 109 98
0.3688433041365875 0.2948635726461976 2.3280382153471555 56 47 40
-0.4444832304524788 0.3828401643793961 1.7522300562343887 56 48 37
-0.4779707408393510 0.3872122268660736 1.7524868758107781 121 112 103
0.2113718308560911 0.4784745185521505 2.3208610533391103 55 49 37
-0.3374316207380327 0.2927228306398474 1.7615002583055457 52 43 38
-0.1993229732780797 0.4080419922975803 1.8588248891551236 43 35 24
-0.4761748641595137 0.3981449356679775 1.7488348001086047 115 106 97
-0.4970795604204142 0.3111274753182420 1.7573472051861436 53 46 36
-0.2000359012684540 0.4235145799823337 1.8299634684948047 56 47 40
-0.2543209692411488 0.3100100773956006 1.7579941282640452 50 43 33
0.3675019750455659 0.3861907640168347 2.3249700694547459 62 55 45
0.5027354292865862 0.4914863852878664 2.3139349341995663 54 47 41
-0.5827533822258655 0.4396513804212126 1.7488126963046307 36 28 17
-0.3092320837867977 0.3464877981115106 1.7555430400915109 56 47 38
-0.5529074452675555 0.3848961455236217 1.7515147383538479 49 40 31
-0.4476376303631110 0.4052620942578226 1.7478904614219624 113 104 95
-0.3080632282331981 0.4356911718279741 1.7468811725189586 64 55 48
-0.6087723389046241 0.4575380756229561 1.7458841484943850 55 48 42
-0.5317677334454108 0.4610323214569095 1.7436989532214870 123 114 109
-0.5828368095044301 0.4756680196232293 1.7442421960512109 48 38 36
-0.2246525053133051 0.4532783719711659 1.7462058638423146 61 52 45
-0.3902517638562162 0.4750464820710505 1.7480448764066461 54 45 40
-0.1944065083682163 0.4656701879045598 1.7500565181776968 77 73 64
-0.2534242217199706 0.4718692244502127 1.7459077515994859 51 42 37
-0.2260044767812323 0.4732658776118684 1.7472532571560495 55 46 41
-0.8557714147422318 0.4944344569863555 1.5683613821991549 30 24 24
0.0888358334306337 0.5027661001012242 1.7224648034825927 59 41 29
-0.5517991161334083 0.5039078727442704 1.4579422298767548 59 54 51
-0.4292062696477966 0.4993517849322028 1.4594385975983843 155 159 160
-0.5090760262309026 0.5312751971745344 1.4528388907234719 103 96 86
-0.7447440196485009 0.2406937796430417 1.7643860611176243 48 43 37
0.3388506622057895 -0.3433534166720640 1.8035217996008679 171 163 142
-0.8922530468101776 0.4800651591563773 1.5550610789322759 54 61 53
-0.3094676956253362 0.4922349204250779 1.7447749393718626 57 46 40
-0.2528822314765205 0.4912661832411341 1.7445650458920474 45 32 23
-0.8582586000741522 0.4970369539826826 1.5711703931777359 43 37 41
0.0251528045178972 0.4979519369327901 1.4521139499707991 39 35 26
-0.4377007106538871 -0.1298068028484895 1.7944060262932395 136 127 110
0.2426665598312795 -0.2507229125706357 1.8132116981739299 140 129 111
-0.4384731745186872 -0.0479146259173790 1.7890508174262378 131 112 79
-0.4384498842551993 0.4115795224969774 1.7541324959007045 112 102 93
-0.5027947922396886 0.4314072248666862 1.7525574248591036 113 104 95
-0.4374761507110679 0.4494380572026329 1.7533639469410522 119 106 98
-0.6301383339795928 0.4692340963547368 1.7506287797891558 124 117 109
-0.5319702114358189 0.4638073242321484 1.7373767841710905 115 105 96
-0.3024168412553558 0.4655889693654020 1.7518580976074452 111 99 87
-0.4279879173520864 0.4994628333149021 1.7383289954282053 108 98 88
-0.2053461141156525 0.3537443587015744 1.7515490737872370 132 125 119
-0.2038574689734884 0.4076673593698021 1.7459170087342997 126 117 110
-0.3783423255243346 0.5083337679251995 1.4585777265710216 59 59 59
-0.2716318607462890 0.4832526827829908 1.7497461061404622 124 113 109
-0.8628666771739886 0.5077436912001065 1.5727981178586115 34 25 26
-2.6945089900004655 -0.9920154661208409 3.1175192793127664 213 234 255
0.3241608169088271 -0.3358952827829917 1.8429400922651955 70 61 52
-0.8356362233451148 0.5109557243665929 1.6526758339085994 38 27 23
-0.1554893849024353 0.4923760047694021 1.4528095545613200 163 164 159
-0.1004687859870314 0.4934518377710773 1.4602956680668533 110 109 104
0.4595865361060720 -0.3897809589001267 1.8095556024193988 65 57 44
0.3859883134680154 -0.3746423562460088 1.8056351484968740 180 175 155
-0.0798727783433947 0.4918304398996035 1.4580779844401768 57 53 44
0.3857886835042552 -0.3428465151248433 1.8035116788812491 182 175 157
0.3846021323796325 -0.3412707223257721 1.8051545817440544 64 56 43
-0.3344363176714915 0.5320836286078298 1.4379359272447592 92 82 72
-0.2552643113892379 0.3478271969333290 1.7520641009781786 114 106 95
0.3354190865169929 -0.3397908425469279 1.8030361082513386 60 54 42
-0.2132596846591504 0.5320606373170654 1.4452412011969034 45 36 29
0.0233815251234636 0.4941040913235513 1.4577003560948198 59 55 44
0.0596304107906053 0.4901515069825507 1.4538792581479667 70 72 67
0.0448096570369042 0.4944197313711470 1.4531207663906252 48 50 45
-0.7715204623016586 0.4067195693525475 1.7551280644614837 44 34 32
-0.4390707463943888 0.3838440186237014 1.7533294055801780 53 45 34
-0.5403713085854029 -0.6871424891640026 1.8267282195395718 113 109 106
-0.5494645232650172 -0.6903579106393255 1.8347248581666324 113 109 106
-0.6351579319728741 -0.6883151726036938 1.8283453385300528 107 106 112
-0.4323187689598069 -0.4843657066931325 1.8190109777394117 134 126 113
0.2166236926839486 -0.2479961984149308 1.8036727827065220 175 166 151
-0.2195871015820706 0.3812291860241967 1.7519775881322261 35 25 16
0.1685135318586543 -0.2035924820908939 1.8062574555166631 139 130 115
-0.1940786108676087 0.4242417736538150 1.8603185116683807 46 36 26
-0.3699860599931269 0.4183309635801508 1.7493917517205277 48 35 26
-1.4169962803817804 0.0193240610960814 1.9000934531620353 59 57 58
-0.2010893827827262 0.4461657413818794 1.8804714758443095 41 31 19
-0.2002492510753073 0.4459694578444797 1.8794311124560794 41 31 19
-0.4355518777458259 -0.3317742700648132 1.8092743241973557 135 126 109
-0.4401347381199954 -0.3334101803713588 1.8138166209190236 135 126 109
0.5685360193302885 0.2493484781687068 2.3386178163670621 25 25 27
0.0304275694427742 -0.1523752308159424 1.7944082897435245 67 60 50
-0.9198663416647614 0.5101139899283995 1.7315340548737459 114 104 94
-0.0379305590994321 -0.1076680659847934 1.7885008327865688 187 179 160
0.5816726944581881 0.4738662991474225 2.2576979659068690 17 16 14
-0.2028598397015076 0.4505050375380268 1.7475999707575278 109 99 89
-0.2490356969316530 0.4575444798132471 1.7464419076497066 114 106 95
-0.4340677240875511 -0.2285105302071087 1.8005564456586109 141 132 115
-0.1643047315099216 -0.0138258148083828 1.7835118873827955 169 160 145
-0.4411131439673975 -0.2192497264493752 1.8058788359522753 146 138 119
-0.9183478446379783 0.5127750435629295 1.5188327712276530 115 101 90
-0.4214930870523840 0.5142633184673179 1.7373254723533025 185 187 186
-0.8972323132663386 0.5083511332937463 1.4608345412436592 64 63 58
-0.7687504920684358 0.3340106466370468 1.7607864549527046 42 39 32
-0.4366183370276461 -0.1870120334518020 1.7993356429559326 143 131 115
0.5679800675182363 0.1991684479203231 2.3420506900863880 33 29 28
-0.4356336981922607 -0.1874269821348998 1.7981291540777453 143 131 115
-0.3280082446692252 0.5182426481810112 1.6713995432461317 105 87 73
-0.6524749755710643 0.2052187522791160 1.7620331974354850 172 164 153
-0.4901074822535543 0.2056655052283369 1.7686063438171769 166 158 145
-0.3882188056531757 0.2053485952312785 1.7688210952359371 158 147 127
-0.5499074435222411 0.4992186699058450 1.4627986644146369 62 54 51
-0.5246141819948189 0.3298496099237809 1.7553883510803732 54 46 35
-0.1984613067069812 0.2102838272859145 1.8314657899665465 150 141 126
-0.3901283708268415 0.5167241329440192 1.5835347854455357 45 27 25
-0.3148341086116715 0.2081140844717716 1.7698272683189744 63 51 35
-0.1968833180005977 0.2064515890931658 1.7830236121490024 149 137 121
0.5263247187330217 0.2516420525755451 2.3649200852262604 42 35 27
0.0495021382213685 0.5064179538140746 1.7450023178523180 53 39 26
-0.4362007374607615 0.5027483542241675 1.4578909163798712 138 138 138
0.1674460388522021 0.4991073068139311 1.7265333175794342 42 33 24
-0.4366714808128477 -0.0480472723973890 1.7883425423301180 136 128 109
0.5885284877188559 0.2847609772582761 2.3362785906864483 116 116 116
-0.4431899330346065 -0.0328282862659378 1.7930544396724679 134 126 107
-0.4392776236444432 -0.0143421614590176 1.7938590084273802 162 155 136
0.4020921579129694 0.3017833197995798 2.2932967123283441 44 35 26
-0.2019659821804425 0.3415110392110496 1.7543158073393277 115 105 96
0.3697957668269045 0.4952615157206422 1.7185483577684773 36 26 16
-0.0962518753721003 0.4938603126919242 1.4547537283053658 69 70 65
0.3921351360841925 0.5093604363379145 1.7556463803662656 31 21 11
0.4078807136984322 0.5057833639482544 1.7546619696576651 145 125 98
-6.1097560447874955 0.1781502995573054 4.1762635982698191 132 145 151
-0.0640255458509241 0.4935926433161604 1.4534023834887679 178 179 174
-0.0372984301690193 0.4924869721190796 1.4632437130877542 154 151 142
-0.1981211040531311 0.2694420035724055 1.7563237425303342 119 111 100
-0.7646973056224436 0.2049252543571708 1.7685716018259348 141 137 125
-0.3090286484960610 0.3633503753960539 1.7533371195638761 48 39 30
-0.8741466446035291 0.1990130843444958 1.5777530202444208 185 193 206
-0.7449645393387710 0.2593186797623184 1.7620364360572047 45 40 34
-0.7007514158215398 0.3141978822942204 1.7588056019565346 34 30 19
-0.2008276588784015 0.5284417299755872 1.3875897289481633 102 101 99
-0.4464673497945329 0.2941044789022189 1.7637571060482871 40 33 25
-0.2235479048432364 0.3083100087159236 1.7545748984707614 55 48 38
-0.2266324293963718 0.3280823148065355 1.7572956136808549 54 45 36
-0.3490375310456594 0.4373931274567425 1.7494213278867583 33 24 15
-0.2021019302185080 0.3293495409200342 1.7777352780025324 31 24 14
-0.4764865086343387 0.4600015396623966 1.7443970025898339 106 96 86
-0.5536575212149402 0.4788825493324854 1.7418620648713508 109 99 89
-0.6367092917987762 0.5123500012026276 1.7425900959919935 39 28 22
-0.4736931144551287 0.4016592299730029 1.7503655198537411 42 33 24
-0.3058838925837720 0.4925585549370166 1.7482179066460493 46 33 24
-0.7976779479603608 0.5179484366935689 1.5682605176811260 54 40 40
-0.3101820431617513 0.3996280131031507 1.7503364082209143 56 46 36
-0.5567345598675424 0.5173015875226015 1.6195891860335530 37 25 27
-0.3257521751390119 0.4986145340512876 1.4655900246919522 40 39 35
-0.4448070575342487 0.4777434763638737 1.7409316219877153 104 94 84
-0.8866527841287334 0.4945085217329863 1.5526266561312492 45 47 42
-0.8734173105598618 0.4978164844031028 1.5555982981229544 153 151 154
-0.5811196656015245 0.5138269307247281 1.7424614677056121 36 32 31
-0.9924694964892490 0.5072763180936134 1.4932825959127498 48 48 38
-0.4415250235626476 0.5117775720021659 1.7422959887599436 42 32 30
-0.3095076152852165 0.5157570934656652 1.7362068999735747 19 15 14
-0.6413272192262102 0.5003486928839027 1.4587693039023890 172 172 174
-0.7511109164562283 0.5350095792610288 1.4071505717002597 58 55 62
-0.6003643226018510 0.5321401406139300 1.4459846814774906 109 88 87
-0.2603034912664213 0.5114885564859113 1.4526545145300784 43 39 36
-0.0407905691138778 0.4941065137173093 1.4724814241329742 116 112 101
-0.8834692263116773 0.5134601492570841 1.4582053549466070 125 125 123
-0.4275282684451477 -0.6892295117073742 1.8320839312540331 106 97 90
-0.5325482670327609 -0.6973494506322711 1.8348790431024573 168 165 160
-0.6266731674611401 0.5031120687871704 1.4543510162768369 65 64 69
-0.2736674773566002 0.4973788151051203 1.4745752811900874 131 140 139
-0.3003469861510017 0.4995572076667931 1.4563685441661709 96 98 97
0.3985193188342192 0.4964903632734295 1.7261645411794471 44 34 25
0.4397652946156949 0.5067185170576389 1.7541071625721620 43 30 22
0.0295653043974342 0.4940459195635482 1.4702867736752985 120 121 115
-0.1932962038240747 0.5292977756386630 1.4443677247685269 31 24 16
-0.7740246765054659 0.4174800516029497 1.7596143049261812 110 101 92
-0.7806937393337556 -0.6969201776891781 1.8609944287317395 151 154 163
-0.7151956320076523 0.4166708169080828 1.7586047421468649 114 104 94
-2.3547619730216063 0.1637599783213057 2.3181664588431272 47 43 40
-2.3841078241775668 0.2271723736908955 2.4175671836470687 36 35 33
0.2405596070919375 -0.2450506315060174 1.7988851681898528 57 47 38
-2.3519334874260838 0.2730739648961318 2.3071555367763352 41 37 34
-0.7598285821619659 0.2335303085095033 1.7638662402592094 122 115 107
-0.2018506975265797 0.2035758393847184 1.7663009143265700 172 164 151
-0.4778303164536591 0.2471859937501170 1.7582235708343747 127 120 110
-0.8707797632075525 0.4987403696083124 1.7741419210640175 129 117 93
-0.2788726868033028 0.4365883906148087 1.7470721141484309 57 47 37
-0.9293621104883287 0.5105296286589528 1.7526332696842639 104 89 82
-0.4752178451932157 0.4944805683853563 1.7447960233798956 43 34 29
-0.5534162781410168 0.4939763421127334 1.7439954505698734 37 30 22
-0.8855038317577331 0.4914030305843848 1.5575096685206111 155 155 165
