ply
format ascii 1.0
element vertex 696
property double x
property double y
property double z
property uchar red
property uchar green
property uchar blue
end_header
-0.2977022047081710 0.5307033973875875 1.4500703444849132 151 155 154
-0.2177744158279305 0.5305050095904565 1.4454569154379229 102 95 79
0.8727275864614166 0.1995751350117217 1.7569922953969501 180 181 186
0.9213791206767956 0.2009067050276906 1.7829582958368337 172 175 180
-0.1653821918187098 0.5303756669043501 1.4393948522060827 94 75 61
-0.1653391866764298 0.5306529561069435 1.4395181893813045 112 94 72
-0.2932200908628216 0.2056275844261757 1.7676600998419876 209 209 201
-0.3212205423387275 0.5313058179663502 1.4470286093402722 101 98 83
-0.3285924178991685 0.2072492153200255 1.7851708556921810 181 167 141
-1.2566416984932072 -0.4167425654959599 1.9224308695066852 210 219 236
-0.3957815343016259 0.2059018191993941 1.7692011947424520 208 205 196
-0.1892623923745691 0.5321361620890211 1.4383081954842216 131 116 111
-0.1887711510310152 0.5319625631391179 1.4377636679728223 131 116 111
0.4080896056449732 0.5232422911028223 1.3853039345666966 55 34 31
-0.2882339520987841 0.5323883820329288 1.4388494554352631 180 175 181
-0.5615550402002107 0.2053527400951671 1.7701279273502091 167 157 132
-0.5594496143476174 0.2172008014030956 1.8663704810943540 166 155 133
-0.6087211124782543 0.2067280522486855 1.7823102707877205 164 153 131
-0.5476382538237802 0.5328056838121202 1.4149874788791132 139 136 129
-0.7689961998336305 0.2058395186649965 1.7712690840351497 141 137 125
-0.3847897934723231 0.2118758861328726 1.7855005287741956 69 59 47
-0.7571174216789648 0.5358628981571155 1.3969834947650572 49 32 24
-0.4169114188621996 0.2095122963671736 1.7687731139846570 49 47 48
-0.5118340349506080 0.5139563746778628 1.2227952505545425 78 64 53
-0.7683946486976496 0.2128402609731992 1.7812199478957946 56 46 34
-0.7986511336239547 -0.3633049189126341 1.7338952045150389 136 143 189
-0.7523272755897036 0.2158114525370670 1.7717144915854750 165 166 168
0.9057410433079163 0.2413122664027435 1.7554098591538094 66 66 66
-1.3019842419755077 -0.4485695601321772 2.3192008401624133 178 186 197
-0.4260690560229148 0.2393164211445544 1.7644021077064964 64 62 63
-0.4200008307035617 0.2414134457817868 1.7741710443809320 70 60 48
-1.4953124913831048 -0.4659119113533581 2.5634967435618936 100 106 122
-0.4540280120324535 0.2063651430804179 1.5030715692337659 146 142 143
-0.7701691738367060 0.2455186727354029 1.7626698389837860 157 155 158
-0.7516001936756741 0.2452748308833546 1.7637567324594050 121 116 110
0.8760083671223238 0.2584561057887874 1.7507665900523990 88 87 85
-0.6654597899007719 -0.5195290682623028 1.2371520164726397 250 255 255
-1.1856078554382636 -0.4153684455699228 2.3921590650022657 105 119 148
-0.2057250941207971 0.2589181375453171 1.7794042318963559 81 69 55
-0.6889624047895679 -0.2710898262985820 1.3824121433523084 251 255 255
-1.0161609969809513 -0.4035639717221433 2.2863927141791689 236 244 255
0.9049658096035954 0.2615949881274943 1.7540897964830660 74 64 52
-0.9008082091694358 0.2205154042008016 1.5889790209129722 40 36 35
0.8503707321156521 0.2621285345971938 1.7543041524026688 65 63 64
-1.8362169818621878 -1.2738615211058999 3.5451023722842332 254 255 253
-0.7067170317164150 -0.2502897587036285 1.3691489772094290 240 248 255
0.9036471071928291 0.2765134526252651 1.7502464070119805 80 80 78
0.8499907420061389 0.2771506929786067 1.7519675142761904 81 79 80
-0.4739308668049517 0.2772711379034757 1.7629087093174771 63 62 60
-0.7656370120667890 -0.7267292925151784 1.9446553674526135 161 168 187
-0.7186794692431158 0.2782290709675064 1.7630073425883281 75 65 53
-0.7464446622500668 0.2801727483273493 1.7626123651920964 63 59 60
0.8766229726690884 0.2946719155330405 1.7484955223484258 76 64 52
0.9048154237795618 0.2968282896608824 1.7517713597621447 71 70 68
-1.7007458759368792 -0.4524384167272414 3.3084320730081647 122 131 162
-0.8756792193643325 -0.2443636901552644 1.5409139128420761 112 119 135
-0.2648717958124499 0.2833547037144648 1.7060279685779183 77 68 51
-0.3644983575752833 0.2921659271006178 1.7591741427956789 61 59 60
-0.1296598555618758 -0.6708822289465772 1.7615177695784396 200 199 194
-0.7807935946564513 -0.2353218778347377 1.4884210507022360 227 235 248
-0.8159667703287521 -0.2799915673691650 1.8749188434287352 124 124 136
-0.8269701719506751 -0.2373298141994643 1.5409396878425192 216 226 238
-0.7454088492697678 0.2963800571964316 1.7595035891536268 60 58 61
-1.0588549792033501 -0.2564258012766085 1.7598362048327427 186 193 209
0.9040965904430410 0.3122228405782840 1.7484974359284713 69 60 45
-1.9796347128078848 -0.4445507502137533 3.5053918801770179 241 255 255
0.8496099942687617 0.3129715598368271 1.7481195220351371 77 75 76
0.3411441999344446 0.4212451492971157 2.3168857618551861 82 75 69
-0.6131092979743539 0.3095740817459072 1.7594786044670503 126 119 109
-0.5232186231205601 0.3174855179675973 1.7600586841231807 137 131 131
-0.2540050528936333 0.3275455016108965 1.7560324022441969 52 51 49
-0.2260211161056032 0.3285724290722024 1.7566770373661764 66 60 60
-1.0249313836645155 0.3575300694315758 1.9364276199068431 55 49 51
0.1213136816955228 0.4243130002332591 2.3169386438992516 72 64 61
-0.8079706602015031 -0.5410936842588076 1.5248360495321693 247 254 255
-0.2811576066868887 0.3456953084963876 1.7549169693029771 56 51 48
0.2538646641018275 0.4397054593343836 2.3084860848111632 60 50 41
-0.4651314739155084 0.3534411792781066 1.7757138535717203 64 51 42
0.0146418299065707 0.4806644435263536 2.3150593638518631 51 43 40
-0.8727396364903260 -0.6005256666913765 1.7797899901966225 230 239 254
-1.1559429284225680 -0.7914837078054440 2.4711735094455856 249 255 255
-0.3644438291641497 0.3650197478933338 1.7539061714979360 75 71 70
-0.8980468646487106 -0.5566268612439719 1.6665605195083624 235 244 255
-0.9631278002948169 -0.6330622667947072 1.9560749284757706 182 187 206
-0.7678280292208474 -0.4666368013764803 1.6942036168186041 157 163 211
-1.0549392118038390 -0.6803387087718952 2.1546200462214800 236 243 255
-1.3645106406983964 -0.6571139372251293 2.1302479478966614 114 122 145
-0.6682286152665516 0.3743518475305973 1.7535352833890774 122 113 98
-0.3101876628667145 0.3833087864624189 1.7527446810045599 60 56 55
-0.5203501431918164 0.3861307303248818 1.7537663397510896 61 55 55
-0.6923783488033665 0.3884624972069562 1.7532148345705616 64 62 63
-0.2547260518517487 0.3996313526653247 1.7502418336876517 65 61 58
-0.2815843604925974 0.4011991468712041 1.7513720446958663 71 67 64
-0.5193758600225884 0.4028238283534678 1.7464132567184729 64 52 40
-0.6371552368434658 0.4045652126995466 1.7514031539189183 59 54 51
-0.6067732316915349 0.4102642124060261 1.7533845907497658 133 128 125
-1.1937845675787699 -0.6399482310755584 2.4025735926526064 153 163 214
-1.1937845675787699 -0.6399482310755584 2.4025735926526064 153 163 214
-1.1783270749146384 -0.5369753967151337 2.0349874636880241 111 114 133
-0.3710842892438941 0.4376451927255092 1.7487443737203956 41 37 36
0.8526904382349618 0.4526095399906722 1.7325136136306487 120 116 113
-0.3391234816112880 0.4413597766259700 1.7459085695514105 133 127 127
-0.7511317967623385 0.4385596438769360 1.7490669874461118 107 97 85
-0.6368841179022804 0.4401676004720749 1.7482703814005638 65 60 57
0.8249732834620468 0.4587881642803741 1.7384700848047507 31 30 28
-0.3681027597386827 0.5521159227183245 2.1039444960418545 73 60 44
0.8245298198657088 0.4767658494223588 1.7349684814116118 38 36 37
-0.5332650951113284 0.4624271034786064 1.7450703123775078 130 125 122
-0.2255850762069163 0.4737212070398082 1.7466331991834150 54 46 43
-0.5603840829678018 0.4778068012668857 1.7486657855857632 67 55 43
-0.7515957729291690 0.4756907855945863 1.7469566331240045 118 112 112
0.8823311912499273 0.4930329974214933 1.7235900394392314 50 46 37
-0.5019752858872091 0.4802625923667784 1.7435767822586861 129 124 121
0.9315583591878424 0.4981813797203008 1.7253061309505251 116 115 113
0.8902873835496238 0.4988671861429140 1.7276213819641393 206 222 235
0.8892616904852920 0.4982873262992366 1.7257219395222192 206 222 235
0.8732930292067742 0.4988892653159540 1.7279258721500061 162 159 154
0.8877848072064954 0.5022734550759789 1.7386816291418679 219 231 243
0.8879171983574470 0.5020740791395070 1.7381999987989876 219 231 243
0.5328423952539146 0.4992068714725533 1.7335857920677400 62 51 49
0.8592366942444989 0.5066187427142314 1.7376449886767436 44 44 52
0.3583950569179189 0.5013339536462990 1.7336838255086753 27 17 8
-0.1508431935219294 0.5024334951376686 1.7404204407039978 178 155 141
-0.4154681216750408 0.4996283856718821 1.7475752550253836 98 86 72
-0.1598809411546552 0.5061506472949691 1.7383367649706438 76 56 47
-0.3086820306419441 0.5100892226017260 1.7427299761368462 59 55 54
-0.3642227269195299 0.5102309299162431 1.7420006405736339 58 50 48
-0.7413317653642910 0.5022409526408794 1.7444900173023630 96 91 87
-0.4195473812802499 0.5119440056166550 1.7422837877730397 48 46 49
-0.3130907547793043 0.5128241351837529 1.7367322834338348 184 184 184
-0.3042507697665761 0.5140330960429508 1.7386803996855291 231 241 253
-0.4740964796797526 0.5125646872586748 1.7432374984084777 55 53 58
-0.3287207166631044 0.5130461747542721 1.7362092621605589 211 220 219
0.7102770613120616 0.4844865766246131 1.4555052576757816 81 80 78
-0.2034842709483954 0.4978056682870596 1.5324827598029234 38 23 18
-0.8600019678845634 0.4959051713764710 1.5648125374295891 144 138 142
0.6734431757011400 0.4893733227064489 1.4525445612094194 163 171 174
-0.7032996182411727 0.5207230698468008 1.6229427352585515 211 190 159
0.5631604621216297 0.4887943236490003 1.4512994342230026 172 178 178
-0.9946109175685158 0.6267147054591338 1.9603101559397742 35 33 38
0.6660229622263323 0.4895723371334870 1.4395212556996348 50 55 59
0.3454462396961885 0.4896527505342775 1.4501381285846582 141 147 147
0.2702170661091975 0.4904900453578316 1.4524322665928331 195 206 212
0.5611408697292966 0.4917488772217969 1.4470129134595320 71 76 82
0.2919946302046535 0.4906095088486835 1.4494768661895616 177 190 198
0.4867790445395130 0.4934431527125588 1.4493701259737306 53 53 53
-0.0325422493753913 0.4940277743788076 1.4691776636533540 67 57 45
0.1388712638251897 0.4923894369844844 1.4526813329823498 154 156 153
0.0107146156202707 0.4940693028948607 1.4548867940089834 183 184 178
0.6589114653493348 0.5018004435484391 1.4431012315142995 156 121 101
0.0697380739087175 0.4953916339095742 1.4506432668047073 61 68 74
0.4512789343110586 0.5007544001630346 1.4449018905376014 165 160 154
-0.0771606798714931 0.4963915950308055 1.4542078550712942 69 65 62
-0.0210755418639185 0.4966970137952642 1.4518312474659070 76 78 75
0.0184267681467437 0.4993424743928275 1.4518573961143375 115 116 111
-0.1156920646859086 0.4962259887754984 1.4511405181223542 38 37 33
0.2117767076839778 0.5008953384452705 1.4486584308165149 154 158 159
-0.2038035061044860 0.4977963087322886 1.4579734876846979 30 29 34
-0.2037979512174968 0.4980683500521884 1.4592536419533069 24 20 17
0.2049591469097491 0.5016622638245418 1.4485195697023550 104 102 90
0.6315102572516857 0.4997641456937477 1.4184395243205346 120 97 79
-0.3814304127856106 0.4971469259361353 1.4614203724803743 147 144 129
-0.2349983360235497 0.4974027566063980 1.4549922763699485 62 63 58
0.5039743420706527 0.5043617618800543 1.4379523438496924 120 93 66
-0.1827506706329586 0.4991081656727556 1.4526403943951665 65 68 73
-0.5093289964989246 0.4980125742651484 1.4714828092851402 183 185 182
0.5360897518840023 0.5022932587971787 1.4290792775926768 42 31 29
0.4511370356861775 0.5048870563069998 1.4329566187526368 62 43 39
0.4511370356861775 0.5048870563069998 1.4329566187526368 62 43 39
0.4015891110847636 0.5071159737150627 1.4343565212608880 51 29 15
0.2445861447773233 0.5102575573093727 1.4476435405705139 66 67 71
0.7022872776783711 0.5127524414290564 1.4335344073898821 167 142 112
-0.4239789579660821 0.5008922677624339 1.4546638761913038 54 63 72
0.4636271089165235 0.5094831766995201 1.4290636510102350 79 58 53
0.5498099024474210 0.5060956208591695 1.4152827072921159 113 83 55
0.5498099024474210 0.5060956208591695 1.4152827072921159 113 83 55
0.7259155331475066 0.5139961850963682 1.4280047070774109 42 24 22
0.7259361575281025 0.5140246710248577 1.4280199562864113 42 24 22
0.5277831825473971 0.5082800075848369 1.4219697028105891 40 24 24
-0.3848891639219184 0.5042651366401227 1.4533179685470035 155 162 168
0.4520190171445559 0.5089416917311439 1.4211049595020371 46 27 23
0.4520190171445559 0.5089416917311439 1.4211049595020371 46 27 23
0.5781697262441977 0.5078488550094623 1.4097760537267412 118 84 57
0.6757948368546410 0.5154346392373979 1.4150620723336857 91 68 60
0.5946995665166469 0.5099998070177804 1.4011426372531424 40 26 15
-0.5427733489585627 0.5075291456311510 1.4567849322521118 85 80 77
-0.0788750164610015 0.5193757004228859 1.4492876645058981 110 112 111
0.4970261067191355 0.5111356132816987 1.4020282307180110 145 118 97
-0.1865809141733583 0.5175151565365685 1.4476162461850324 91 87 75
0.3872289226065039 0.5160823567787536 1.4176811267869824 30 10 9
-0.1750084327375825 0.5197616167069462 1.4473402119929342 81 78 63
-0.5170327750858742 0.5147450416707671 1.4550625080882784 69 68 66
0.6888732066889462 0.5199727304993649 1.4027347142811921 166 144 130
0.5697436809805096 0.5148285261342502 1.3919288968133823 64 40 28
0.0211329546211158 0.5281294537809919 1.4474395808223151 40 38 39
0.1238891879395452 0.5259138293712977 1.4359044353002186 172 147 116
0.6179283546231656 0.5167903725229017 1.3865507487017281 140 110 84
-0.5191277371788346 0.5187188480894879 1.4550669285500391 118 108 96
0.3987420703610106 0.5202203335927855 1.4058164284836037 79 61 47
0.3977190976473784 0.5192454944746369 1.4032513760729055 114 93 76
0.4153436134947154 0.5213185086895346 1.4089938202469410 143 123 114
0.0292541841322651 0.5296458515037933 1.4430601229587257 169 151 131
0.9906081979079447 0.8456500352126708 2.2768632989131623 150 124 109
0.3618397070863943 0.5233438847503411 1.4061484482044506 44 26 16
-0.5125654837253747 0.5243569682246819 1.4543258490944535 73 72 70
-0.5723197258466409 0.5219423924198852 1.4527190066993390 116 117 119
-0.5723197258466409 0.5219423924198852 1.4527190066993390 116 117 119
-0.1913686381261302 0.5293156588605946 1.4426937571850567 69 51 41
0.5923495575338205 0.5193946629436128 1.3775019400583812 41 27 27
0.3971274162885379 0.5228346447324546 1.3983353695335734 44 25 19
0.5974232600297689 0.5199680731251330 1.3759402398353966 53 38 33
-0.6707987670378304 0.5219687320936731 1.4523167545625053 126 128 127
0.5294785316025019 0.5215514572572908 1.3780114740784677 106 78 54
0.5394736498777312 0.5198352089545111 1.3703635308045929 97 80 62
0.5317265551271056 0.5198663757446924 1.3689972149065510 171 147 119
0.5317265551271056 0.5198663757446924 1.3689972149065510 171 147 119
0.5901562742361084 0.5158610685056230 1.3543381101588903 99 81 57
-0.3269600667713565 0.5318676721203726 1.4430785431251827 84 72 48
0.0435013531630359 0.5248152919783702 1.3961263482012898 116 74 50
0.4081462329888605 0.5260795212757418 1.3697416102553934 102 83 68
0.4081462329888605 0.5260795212757418 1.3697416102553934 102 83 68
-0.5373116539149360 0.5335469282049452 1.4212651365293152 153 151 136
-0.7891818065189818 0.5324634029591415 1.4144455050852671 111 103 90
-0.5191448153714893 0.5137405970437395 1.2232334422743889 99 83 70
-0.5191448153714893 0.5137405970437395 1.2232334422743889 99 83 70
-0.4976102850293325 0.4941769443192113 1.7441866401918875 43 37 37
-0.4753768196780188 0.4952160581715638 1.7455408083933919 48 42 44
0.8254902190317751 0.1854211906666097 1.7350262593363945 186 176 149
0.8349179998980756 0.2001545441990597 1.8012208814262802 89 78 74
-0.2626186919864932 0.4988558564658736 1.7393003388982096 138 127 123
-0.5475277471765219 -0.7066265823469140 1.8498839589540632 205 205 205
-0.2896242733577181 0.4995593951526736 1.7408512148136117 139 130 125
-0.6076365335317728 0.4945500770318356 1.7444048942709083 50 45 42
-0.3176263583098528 0.4992616562639814 1.7399978788145407 139 131 128
-0.5054915745864755 0.2054074275576364 1.7701819592773100 170 160 148
-0.5837777431059396 0.4967356401504236 1.7463658567066884 49 45 42
-0.6778245737948397 0.2046921852853227 1.7803816247814306 175 164 142
-0.3722346962130094 0.5002812902292543 1.7407812928289681 130 125 121
-0.6381853168785152 0.4971209938242061 1.7468694352607410 64 56 53
-0.4284176874491147 0.2113037698301745 1.7772422192600961 66 56 44
-0.4120649855555473 0.5033479458268333 1.7477056054632933 133 125 122
-0.7185782171521475 0.4965398171561748 1.7451425285119808 36 27 20
-2.0815377325316136 -0.8154239129315238 3.7779905771188873 95 100 120
-0.4826935762450379 0.5027480658580288 1.7400486810928955 142 134 131
0.8513961708482668 0.2406363176980801 1.7561397553233316 86 84 85
-2.2144125511342136 -0.8905548906475275 4.1753031003129308 244 255 255
-0.5218202529766993 0.5049575355754211 1.7474324839717557 136 128 126
0.9174362058702227 0.2388565888645468 1.7321472322261016 70 62 49
-0.4747332461896449 0.2427221522189248 1.7770822028022215 71 61 49
-0.5281318430427576 0.2408943464475226 1.7668396397523718 74 74 74
-0.6766401229932399 0.5111504015697318 1.7276636421821105 37 37 47
-0.8990666958341350 0.4829343375138021 1.5558046915865695 39 40 34
-1.1686111355769180 -0.4902998662593769 2.2601989339111368 134 142 181
-0.7468129528117613 0.2601432600000672 1.7636205286268991 60 60 62
-0.7192595011672418 0.2617357854994544 1.7656022383006851 80 78 79
0.5109068378606253 0.4875462495524034 1.4557118891741838 107 112 116
0.3786116295624704 0.4899549694889653 1.4533735915883170 128 133 136
0.6596624463448967 0.4952318362166612 1.4499027132836042 68 64 61
-0.6629329544275334 -0.7016381514623699 1.8528284619391613 130 132 144
-0.6636958008118737 -0.7017760951365634 1.8538166380723724 130 132 144
0.2034505828959043 0.4914216850390816 1.4538876632841002 171 177 175
0.2445220133457392 0.4895721061611178 1.4510563728872927 201 206 210
0.0240940564747170 0.4935100495923013 1.4659024920851984 60 59 55
0.8532292800938308 0.2988420847317023 1.7560640814170518 58 50 37
-1.1921900618818335 -0.4249003794380328 2.1507292647060039 67 73 87
0.0522674385383320 0.4914395657844619 1.4523238743263653 176 187 191
0.0689365015639212 0.4907850740814046 1.4525501656754911 178 187 192
-0.4447397402336108 0.2948380337850955 1.7626926673388643 57 47 37
-0.0219534390892527 0.4932568175618096 1.4586593774406067 136 129 103
0.2737040716219781 0.4963345737399306 1.4514969304596865 65 70 74
-0.6099342815992230 0.2973805840033784 1.7652776700575521 63 53 41
0.4398053666805293 0.5007902758854547 1.4477745995044802 120 116 113
0.4398053666805293 0.5007902758854547 1.4477745995044802 120 116 113
0.3485695251978544 0.4137295950593656 2.3205056442780259 138 130 127
0.8784962346766315 0.3153073203783981 1.7496740638715880 68 66 67
-0.1758393116607813 -0.6958402919274341 1.8425865906335008 183 172 152
-0.4447487946629300 0.3121807776148628 1.7591891255670955 52 50 51
-0.3602459200778668 0.4956974168906572 1.4553533912829999 146 153 161
-0.4192649634458759 0.3124900312926333 1.7594678597218494 51 42 33
0.3960629324345261 0.5062868252993541 1.4467809834861776 60 49 45
-0.4733979511284290 0.3137733264408980 1.7614629292484876 63 59 60
-0.5557818200685101 0.5011954746323898 1.4778771077164774 96 80 83
0.9329788674982853 0.3302068084933704 1.7484816219748101 69 61 50
0.6092337791826111 0.5051049758663476 1.4265180656762091 70 42 28
-0.6927464794050433 0.3163388079119885 1.7615357191474115 51 49 50
0.8510038718446618 0.3332955810857274 1.7490534114059604 60 60 60
-0.3758236080956575 0.5049645635737817 1.4563144439138949 58 59 63
0.4229469329962910 0.5098179684166892 1.4313348150233898 148 121 102
-1.3492745301787115 -0.3618903760371568 2.4529363123302383 190 198 211
-0.2788944940203766 0.5071348467050605 1.4518165850723899 54 62 65
0.8501283645649069 0.3488858747651422 1.7457965390339270 73 71 72
-0.8779703531219523 -0.2842217593968245 1.7966373178556085 117 124 166
0.8792464715533040 0.3513557294944626 1.7474129265839455 56 56 54
-0.6664121445030862 0.5002300068255796 1.4597341473105103 204 209 212
0.5345905055927640 0.5094541936657263 1.4147256378635285 132 110 87
-2.9933083338030690 -0.7114583139643997 5.4583319981232128 110 119 148
-0.6638565818774488 0.3505554324623938 1.7580569951194207 58 48 36
-0.5509343216151595 0.5044596799048675 1.4569400202790024 71 67 68
0.7387406012254712 0.4800827893037399 2.3104185985462333 134 134 142
-0.2123784990321579 0.5129213586403384 1.4510258510330356 78 83 89
0.2768097729820594 0.4866201703850618 2.3088467571658642 125 117 114
-0.8040311164304520 0.5010810208328096 1.4541028319144482 130 122 119
0.5696400402367338 0.4881130454238107 2.3021353573138503 34 30 27
-0.9439024734422213 -0.2468001447832950 1.6395280101339182 74 77 92
-0.7561618530846185 0.5074026790441815 1.4571527117662915 60 60 58
0.3911964941052419 0.5162207565515858 1.4122547170611677 113 83 59
0.9041719836621691 0.3839356448581115 1.7405575637605624 65 60 64
-0.2020264910095785 0.5222633821488426 1.4482176243050924 48 45 38
-0.6638013561314839 0.3702531885079903 1.7555763658678583 51 49 50
0.4563356799825842 0.5165804354150270 1.3993203323278212 122 95 76
-0.7186879105547281 0.3708067153745092 1.7550298398699671 49 47 48
-0.4194528204013017 0.5205553226603704 1.4522857297413576 82 79 70
0.9305799812970983 0.4014508950695713 1.7369829147137565 54 46 33
-0.6382909134334599 0.3879706798337790 1.7545012680151020 63 57 57
-1.1587782116550078 -0.2905885984422992 2.1984580330604047 77 81 93
-0.1557130853527726 0.5260882925293436 1.4441140612453498 56 54 55
-0.9326463112444020 -0.2639768310736830 1.9537457511846135 93 106 138
-0.5575564526802742 0.5207085228021299 1.4534845314523372 111 115 118
-1.1320979435833161 -0.5917649302940755 1.8423923248292762 252 255 255
-0.5396843067215077 0.5270043833541261 1.4535993563132117 110 109 104
-0.5388946112515202 0.5266475266314895 1.4527520826749021 110 109 104
0.4101836134203515 0.5224234666659975 1.3789955208443723 39 20 13
0.8497576354207308 0.4212283826111805 1.7381019914505305 52 51 49
-0.7571083750632317 0.5311896709248819 1.3973012987295101 126 103 85
-1.2864144897349066 -0.6223271876834287 2.0401932768015798 249 255 255
0.8786733469604348 0.4234112909527280 1.7398453233755995 60 58 59
-0.6092104447473611 0.4219922048412964 1.7503581092862532 53 41 29
0.8276405551525079 0.4421583713838768 1.7445261220109198 53 47 35
0.9057969722614957 0.4410579721471607 1.7371935373396523 67 63 64
0.8517568516972706 0.4421578050744777 1.7396705387002844 57 56 54
-0.4723304463478779 0.4386185317993043 1.7475784053102392 53 47 47
-1.6606161044231933 -0.3147372672518454 3.5478814292801193 220 228 241
0.8507399549604515 0.4575880983537200 1.7363641450551328 60 56 55
-1.0936452040290559 -0.5998005358024413 2.1794905763281629 254 254 255
-0.7465664856251594 0.4415149906540770 1.7485835261151965 57 51 53
-2.1129442046862437 -0.3102303336172444 3.8624910673662511 247 255 255
-0.8161462878757499 -0.1721121673187271 1.7820788600511264 204 214 239
-0.8148081397450017 0.4510200616803444 1.7662475145022445 65 77 65
-1.3933399362946366 -0.6441087816052111 2.5121481362117404 145 159 196
-0.3091881729055416 0.4570710150275050 1.7484755077842635 73 65 62
-0.4442910803282951 0.4562071208039454 1.7462945251420754 68 63 60
-1.1763342024008463 -0.1701200975513398 2.0637606397817247 205 211 223
0.8793234933409628 0.4750180567715421 1.7343735775270024 62 58 59
-0.5844643556896747 0.4602441117188183 1.7492836182355307 49 45 44
-1.2976331794089109 -0.2001312590671000 2.5969408033738022 163 167 179
0.8519497690599165 0.4788159074338404 1.7358370389126776 59 58 54
-0.3895242987720346 0.4756695379635191 1.7472879734259150 42 30 18
-0.7209874665054061 -0.3867681881563835 1.4775645605225691 150 155 175
0.8526437291063172 0.4944845582516627 1.7347320107604853 64 60 57
-0.7464189289872503 0.4782646214241702 1.7461189642535295 47 43 42
-0.7401683149471016 -0.3940628686676223 1.5366378929510052 234 242 253
-0.6644630441459095 0.4789632868513737 1.7464198721644764 48 42 42
-0.8825182813737252 -0.4354762224613425 1.7953805744443689 134 139 158
-1.0364169265734329 -0.1326345272014936 1.9273747956345015 196 200 211
-0.9281994508283558 -0.4572198583591282 1.9134864745936979 155 158 211
-0.2534740169313078 0.4922548785037024 1.7453104441842950 51 44 38
-1.0795685629904210 -0.4218913643430184 1.7941687057445306 117 123 139
-0.7757205237997186 -0.4329502366810726 1.8287613532010554 234 241 251
-0.4409310779152481 -0.1165946665564036 1.7971963470207655 162 158 155
-0.5533870229066363 0.4946503146973220 1.7441500287448279 40 36 35
-0.7217147402944024 -0.1016338780969430 1.5266732535630485 71 70 76
-0.5302488963631716 0.4962802602052966 1.7461779860665445 55 47 45
-0.6635942214562660 0.4949564974619088 1.7439337223862841 50 49 47
-1.1320180765004051 -0.4081211954923594 1.8878273227923212 214 223 240
-0.1401883799500577 0.5054597729945284 1.7391308444933331 70 56 53
-0.6928229070380375 0.4971629535878443 1.7450739299616884 39 30 21
-1.0659015204206812 0.5745836580103874 2.0315317038430782 58 62 47
-0.7475006295872140 0.4986839307802924 1.7456836579384583 44 40 39
-0.2030803234080042 0.5153151133225227 1.7515999902570010 200 200 200
-0.8716623819523169 0.5033760899027561 1.7122507118622243 34 33 38
0.7202512375635045 0.4869243305665247 1.4515319282101105 152 160 162
-0.6930994647923628 -0.2812415615704882 1.2803616123289039 93 98 117
0.6280003527122305 0.4870509960281333 1.4508337815775825 141 141 139
-1.2173526010920663 -0.3835176554137859 1.9846945736706152 65 71 83
0.5789567924065853 0.4870603714573478 1.4515308397580824 165 174 173
-1.0615891106866273 -0.6027801546960844 2.2352876596371378 90 99 114
0.6092889269388164 0.4880374883606454 1.4492815391291696 155 154 150
-1.1202545469099756 -0.3991658040544677 2.0822171216643666 219 226 236
0.5376911254572330 0.4880493892082702 1.4486660609250717 96 100 103
0.4091982881554040 0.4871247736583875 1.4504097808029635 146 148 147
0.4093593462677371 0.4875294623130644 1.4513706236411281 136 133 116
0.5733007663351042 0.4908263282874261 1.4496629948670823 62 67 71
-0.7671184083912220 0.5213179901638616 1.6053825366029575 41 30 28
-1.1380898871660341 -0.4378024764764370 2.4108293902236499 97 106 137
-0.7671184083912220 0.5213179901638616 1.6053825366029575 41 30 28
0.1191413772807019 0.4896599777324157 1.4513898638901432 173 177 176
0.3712340277370729 0.4970520783074913 1.4481213737933085 55 51 50
-1.7467217504667358 -0.5012517564140354 3.0780680202307389 115 125 161
-0.8333543908018767 -0.3072888287421819 1.6914733726934246 222 229 245
-0.1819040788870582 0.4913255178836703 1.4489184034159077 128 125 116
0.0773326361082205 0.4967964942182710 1.4521372867341713 48 44 33
0.0770908838436491 0.4964536623097857 1.4511231922196179 48 44 33
-0.3875424849826689 0.4934383559394550 1.4661261742079048 86 67 69
0.6682961414456361 0.5028385541530588 1.4433496578863092 50 36 27
-0.2523499107417834 0.4947201106949567 1.4551689686079139 172 179 185
-1.7612804496797343 -0.4968891849326468 3.2227376668394419 130 141 173
-0.8994234910194243 0.0767497427802701 1.9494574061565808 57 56 64
-1.1198597487367035 -0.3070531627508031 1.8280434986681708 214 222 233
0.0712403308003554 0.5016149144549142 1.4499128284691818 154 161 167
-1.3356973276490833 -0.3759549231334938 2.3434463351149279 214 222 233
0.8596511220363481 0.2023931375163589 1.7568605558150880 182 186 189
0.5569043126362827 0.5028750898624755 1.4334666003864649 56 36 29
-0.5212163926514214 0.2055968206048105 1.7827592206921716 178 167 145
-0.5581572575608061 0.4983473028333151 1.4692274094805724 178 182 185
-0.3184956818993929 0.5010645871629424 1.4549074321752480 66 70 73
0.6227956380680927 0.5078697083244216 1.4250861827584214 144 118 95
0.6871970916012039 0.3144931782588616 2.3266692329906249 73 75 87
0.8398835209541077 0.2322786084213859 1.7507312297027040 151 151 151
-0.5818064186291044 0.4982489774188578 1.4607846126239705 183 192 201
0.5458797223311895 0.5054882818884212 1.4205538981700068 64 39 32
-1.0343416749691305 -0.2969852387539613 1.9564933335320667 243 250 255
0.5459111530444092 0.5056114654812501 1.4207131930166428 64 39 32
0.8606835763141929 0.2338333552008524 1.7585846566968875 153 151 152
-0.9527887114653315 -0.2925265273418859 1.9344530697091422 242 255 255
0.5861286004344322 0.5071202965285500 1.4121879038434977 101 74 57
0.4576439692691661 0.5113495910724973 1.4206274427228427 91 64 43
-0.7092356083155393 0.5019179045503654 1.4581251333585372 148 141 131
-0.5837128912071833 0.2435014226262157 1.7746687200011579 68 60 47
0.5887951266817236 0.5076988281330396 1.3992512589193795 162 139 108
-0.7503562404150361 0.5015838184284838 1.4590506600191837 134 133 128
0.8859863782487402 0.2518476455418714 1.7534923394247546 153 153 153
0.2477450224500358 0.5204778077538684 1.4466366643207951 136 137 132
0.5801324383625558 0.5080862700075798 1.3964307102376485 153 122 91
-0.6945972493944093 0.2434307319019419 1.7735995017577511 77 69 56
-1.7917727112450996 -0.4150565864160143 3.1379241375591618 244 255 255
-0.6152853592690608 0.5048783116864716 1.4567134900088274 77 83 99
0.8686882418952869 0.2514442213837933 1.7520523953700702 151 151 151
0.6143828168795508 0.5092702121026753 1.3965752080878240 120 90 64
0.8686882418952869 0.2514442213837933 1.7520523953700702 151 151 151
-0.7469920653723773 0.2420340767140775 1.7662547987673625 62 60 63
-0.7473627602962415 0.2421897963979958 1.7668223423765670 62 60 63
-0.7936729705240479 0.5017034921922869 1.4545362381027303 146 139 133
-0.5024765127666986 0.5101310000997352 1.4553928056322114 141 125 109
-0.2625882692189205 0.2475024416372874 1.7629437244571091 145 141 142
0.4270713135695256 0.5114584918050892 1.4067984055464986 178 156 133
-0.2625882692189205 0.2475024416372874 1.7629437244571091 145 141 142
-0.7055252172048007 0.5060903591518744 1.4543387772977434 82 86 89
-0.8097080176039803 0.5081681432868626 1.4598045799616235 51 51 49
-0.4809443150479953 0.2484832002706253 1.7615881227613295 150 148 149
-0.4803370001577173 0.2485521515393726 1.7618289875831246 150 148 149
-0.8324784122803413 0.5094288353250053 1.4587158980421566 57 57 55
-0.5352317121663350 0.2492550945295803 1.7635615402847384 143 143 143
-0.5340555440025380 0.2489074337009921 1.7607758238756603 143 143 143
-1.0135872217289650 -0.3749268303360374 2.2122571861220521 234 245 255
-0.7266533180213013 0.4707304247698682 1.3875466977102779 113 114 119
0.0116191522858532 0.5292042522035092 1.4408349264890441 109 88 67
-2.0773266948091571 -0.4146330104451875 3.6507548438070594 145 155 190
0.6086470674456744 0.5179004669659070 1.3820922579498069 129 102 75
0.6086892044095199 0.5182106727119038 1.3823041649399368 129 102 75
0.4229468768910981 0.5204187179593993 1.3966409612381516 142 112 86
0.9106191134995859 0.2680292629250465 1.7500255174686274 149 145 146
0.6584004729337954 0.5210453777780333 1.3842361335841744 42 27 24
0.8299589522238418 0.2699540636142986 1.7551383750906222 144 140 141
0.5470737296955224 0.5175442868655794 1.3805880779165922 42 28 27
0.5470737296955224 0.5175442868655794 1.3805880779165922 42 28 27
0.8439821550396739 0.2700511416479619 1.7556746217825452 149 148 146
0.6578071970076765 0.5209191952332330 1.3727085597560138 144 121 89
-1.0756742721394486 -0.2568161481793463 2.0607236406687748 99 109 144
0.8567519567410874 0.2696940576531659 1.7508768791148970 148 148 148
0.6600130281376758 0.5221992549411141 1.3767028895367031 144 121 89
0.3614166515533702 0.5249172841066682 1.3973697766198341 176 155 150
0.3614166515533702 0.5249172841066682 1.3973697766198341 176 155 150
0.3883898141154590 0.5251130386460098 1.3931567181199087 128 102 79
-0.2349841631458977 0.2651033500096251 1.7597608277658316 142 138 137
-0.2194737368157459 0.2662219434223885 1.7669195543084426 143 139 140
-0.2066397584794743 0.2648119476690927 1.7592581843673585 147 143 142
-0.3444287086032776 0.2653465921744551 1.7585139482337759 150 146 145
-0.4387584405463131 0.2672585689859155 1.7671096893966984 139 138 136
-0.9387298687285739 -0.2205253539764964 1.8232243398837868 70 72 85
-0.3840215200095016 0.2670636861001597 1.7670936854158719 150 148 149
-0.4531034361813642 0.2665587987971268 1.7598411002303485 148 144 143
-0.4534082118234983 0.2664447126866999 1.7592058245013034 148 144 143
-1.1592347550251487 -0.3015484000043960 2.3806069372041616 210 224 253
-0.5481452184168940 0.2687547676653002 1.7684195739136201 143 142 140
-0.5481502010002743 0.2688481878605367 1.7682747947750219 143 142 140
-0.5081771832246852 0.2665417969223567 1.7601408496181639 145 143 144
-0.5092722695316254 0.2671929804593288 1.7634345399500466 145 143 144
-0.6031394575611031 0.2688263938589859 1.7660802441998349 144 143 141
-0.6031394575611031 0.2688263938589859 1.7660802441998349 144 143 141
0.8686737596025099 0.2872185791238764 1.7489742589884107 145 144 142
-0.2468830276826060 0.2840835765419430 1.7651608455017815 142 137 134
-0.3172547363144658 0.2832963645766968 1.7577046067734654 139 135 134
-0.3024540126017281 0.2842423206061804 1.7637545178060714 141 140 138
-0.3024540126017281 0.2842423206061804 1.7637545178060714 141 140 138
-0.3579852581229653 0.2849578310525793 1.7658684125071253 113 106 96
-0.4266975475122120 0.2834132145083788 1.7566586707801610 147 143 142
-0.4122782206118348 0.2849109286605357 1.7651416663632296 144 143 141
-0.7280234200596146 -0.1635756359131802 1.6187738882043654 112 107 114
-0.4803807350283171 0.2847312928962917 1.7571478683240780 146 145 143
-0.4675387659381764 0.2867776257159057 1.7714299130372835 128 114 101
-0.4673892300414794 0.2858917639151222 1.7673630783858494 151 150 148
-0.5215569533731592 0.2862637932449503 1.7658382465624252 142 140 141
-1.3612971233523761 -0.1722362398241988 2.0893646572832973 196 202 216
-0.6300004841961246 0.2880390464444776 1.7647012178742625 153 151 152
-1.1551035307453044 -0.1503559873037964 1.7911340589550711 230 238 251
-0.7572600629379886 -0.5521305070836712 1.4982924265977886 251 255 255
-1.4556536772115989 -0.1733310660625819 2.3063290960627696 181 188 198
-0.7532672723454898 0.2880727028484948 1.7594560637831858 136 134 137
-0.7399527565570971 0.2891530365434008 1.7666902199699979 115 106 91
-0.7401581045223764 0.2893530780229743 1.7664981359633973 137 135 136
-0.7690790617388698 0.2888969014204290 1.7650342370040490 128 126 127
0.8973555531027116 0.3049890254179412 1.7509006883931511 148 147 145
0.8973555531027116 0.3049890254179412 1.7509006883931511 148 147 145
-2.3521478949850532 -0.2493511163392957 4.2882862064206417 86 88 113
0.9107265516635186 0.3045210226291442 1.7470421580764450 149 148 146
0.8432831834222703 0.3058180945116741 1.7512132994435210 145 143 144
0.8432831834222703 0.3058180945116741 1.7512132994435210 145 143 144
0.8557450825751328 0.3047133486764298 1.7457076025943339 143 142 140
-0.2069616533559519 0.3007355624565433 1.7569965243377046 151 146 143
-0.2894963517995827 0.3013926894933816 1.7573490253258683 145 141 138
-1.1203685171265985 -0.7505776918257736 2.3881940252420133 248 255 255
-0.2343202422205001 0.3008468020352780 1.7583131927374169 147 143 142
-1.4849561366106037 -0.1456257516994895 2.4548901422371747 70 66 67
-0.2187871043627319 0.3022724094891981 1.7633820396004793 151 147 146
-0.9473542601246618 -0.1317377942820537 2.0342279861872870 248 255 255
-0.3288061272760431 0.3019388864286885 1.7625456860423241 143 139 138
-0.3288061272760431 0.3019388864286885 1.7625456860423241 143 139 138
-0.2736809662485568 0.3022356590130724 1.7626350767521330 151 147 146
-0.8555780485337831 -0.1069771954413200 1.8399361151532330 242 255 255
-0.9149617676041827 -0.0715073412236775 1.7769046188651338 100 106 122
-0.5603221669566217 0.3029856185438550 1.7543778246158979 146 142 143
-0.5618193661108070 0.3039378343607254 1.7585227036686408 146 142 143
0.8342297460319018 0.3180491532015086 1.7677840880557398 68 58 46
0.8246079827493608 0.3205049961097180 1.8212653313747373 59 55 52
-0.9300220732994441 -0.1017565770401490 1.9544817510289987 50 49 54
-0.9238384447859264 -0.4916186243947495 1.6627721894561123 252 255 255
0.9339123956067266 0.3203717713346931 1.7394534212086310 120 111 96
0.8856123675178063 0.3225553571001680 1.7470071067850532 145 145 143
-0.2058482255352681 0.3183313904237377 1.7536295975455785 150 145 142
-0.3170977882788721 0.3187704402324059 1.7543013704929404 145 141 142
-0.9973574627384293 -0.0831763001040957 1.9682309924774757 166 176 188
-2.3090059263694420 -1.1056102333146915 4.2592359799648012 244 250 255
-0.3170977882788721 0.3187704402324059 1.7543013704929404 145 141 142
-0.2621873634011703 0.3189705920072640 1.7541176637326765 140 136 135
-0.6841664664168831 -0.0641910053767729 1.2222405170919999 63 60 67
-0.2470417061194066 0.3202186053640002 1.7608466349753460 147 143 144
-0.3571374999709832 0.3215843677427160 1.7629670968502362 143 139 138
-0.3025058928615909 0.3204405303376757 1.7607772534773700 139 138 136
-1.0920790337114572 -0.0330087739347814 2.2172745822260018 78 77 75
-0.3027416222734111 0.3211668946952965 1.7632312246997077 139 138 136
-0.9272771649603995 -0.0624861484559411 1.7684032014844528 52 51 56
-2.4160728126125606 -1.1516875837479841 4.4811398759310554 121 130 173
-0.5361163249272872 0.3225108492840409 1.7582626584503827 140 139 137
-0.8507459488567481 -0.0464289390327129 1.7922130058785071 192 198 212
-0.5896536801417905 0.3224401379041246 1.7550421959723279 144 140 139
-0.7539432643199661 0.3243795713452494 1.7562017269521646 121 121 121
-0.7993708492763442 -0.0383396497964415 1.7811691303714698 152 155 162
-0.7420838388354181 0.3259883056338506 1.7651349537989278 136 134 135
0.9111952254212264 0.3390684853543744 1.7427693702226230 143 142 140
-2.2708404817960943 -0.0162665424517827 3.9946769282423591 111 114 123
0.9111952254212264 0.3390684853543744 1.7427693702226230 143 142 140
-0.4422816679930682 -0.0202788004136715 1.7918183931056628 165 161 158
0.8588220990405128 0.3409080247583434 1.7476423203831539 146 145 143
0.8952708546021820 0.3401748402950802 1.7435989317410954 120 110 98
0.8288670791171099 0.3404208173650488 1.7446643533393629 138 137 135
-0.2340841244453626 0.3361966774100516 1.7529199859803346 141 137 136
-0.2340841244453626 0.3361966774100516 1.7529199859803346 141 137 136
-0.2187881949226387 0.3375875914488846 1.7581885973515854 141 137 134
-0.2187881949226387 0.3375875914488846 1.7581885973515854 141 137 134
-0.7386501304037920 0.2028733998432204 1.7682219594776365 173 162 142
-0.2055560994277675 0.3359743521567341 1.7522504313836855 133 127 127
0.8243043748810651 0.2352477465107778 1.8578351954581427 91 87 86
-0.3278738370083219 0.3388583618084614 1.7600056308028325 140 136 133
0.6132777897174277 0.3024303768145098 2.3275840632384224 71 75 86
-0.3278738370083219 0.3388583618084614 1.7600056308028325 140 136 133
-0.2889357026000274 0.3374956742569484 1.7551008584698988 139 135 132
0.6132927262395186 0.3025024039942739 2.3264305477699567 71 75 86
-0.2889357026000274 0.3374956742569484 1.7551008584698988 139 135 132
0.8300576605287648 0.2334539254058368 1.7555037894502064 146 144 145
-0.2739431770130587 0.3380588612076229 1.7597620754110037 138 133 130
-0.2739431770130587 0.3380588612076229 1.7597620754110037 138 133 130
-0.5657980406134360 0.2325325061286427 1.7672820556462498 169 169 171
-0.3433263428629320 0.3387820596892734 1.7557556754824348 140 136 133
-0.3433263428629320 0.3387820596892734 1.7557556754824348 140 136 133
-0.3969484822319374 0.3379900222324787 1.7520555052048166 140 136 133
-0.2058438893698385 0.2462347633181655 1.7599111169597206 150 146 145
-0.3826233561466392 0.3400346524453111 1.7606159831597286 139 135 134
-0.4523402645481001 0.3396291436110649 1.7532300489905899 142 138 135
-0.3722698092315308 0.2474620988275766 1.7615860517501909 142 141 139
-0.3556985104013791 0.2481189047577883 1.7672375147926886 143 142 140
-0.3017690484205197 0.2481134281795766 1.7673185285361952 141 140 138
-0.5618614002875491 0.3405105370350278 1.7530878938632053 145 141 142
-0.4259137788765039 0.2480028810601231 1.7611116045579642 144 142 143
-0.4104284263460048 0.2480779506044847 1.7671823776054616 149 148 146
-0.6573975230695851 0.3434795973292274 1.7618736442755789 142 140 141
-0.4652890474636331 0.2498940707193468 1.7701019898219743 145 143 146
-0.6559559642738373 0.3428452721216048 1.7581687415551472 142 140 141
-0.5205433132104994 0.2500441044504431 1.7703189522551259 153 151 154
-0.7131302323573560 0.3441869047972572 1.7638413705330720 141 137 138
0.8725998090789255 0.3586024584701379 1.7471953096773876 140 139 137
-0.7405124811880924 0.2519025232274201 1.7690765624980465 143 142 147
0.9207587199917618 0.3569697121626272 1.7377597573380732 118 109 94
-0.7677800868562020 0.2510063636054115 1.7667440007940141 136 136 136
-0.3021389319942708 0.3557173110159784 1.7571818008136957 140 134 134
-0.2621865353024655 0.3549422287436285 1.7518667173152178 143 138 135
-0.3172522474047378 0.3557719832433249 1.7532169824581407 139 138 136
-0.6351432693258240 0.2687647909824527 1.7653537033504976 152 150 151
-0.3720303242722398 0.3562565434392527 1.7520492534125229 140 136 135
-0.6351432693258240 0.2687647909824527 1.7653537033504976 152 150 151
-0.3569330516054824 0.3570060308142209 1.7580772275356658 141 137 136
-0.4121720594978179 0.3583080104070586 1.7584074422767517 147 146 144
-0.7685810347477119 0.2709348979314962 1.7667506951215872 139 137 138
0.3847682300977799 0.4861669066262286 2.3129606124468318 131 123 120
-0.4670768889840118 0.3584113311912859 1.7579184342519039 142 138 137
-0.7269018612616543 0.2699460850877534 1.7618671611727117 142 140 141
-0.4805158821936851 0.3572073316622963 1.7515981216826291 144 139 136
-0.7269018612616543 0.2699460850877534 1.7618671611727117 142 140 141
-0.4816004623347400 0.3576075288431910 1.7531185021970732 144 139 136
0.8299658162512362 0.2875910643379145 1.7519407875265691 150 146 147
0.1310287315677344 0.4878581293503070 2.3118096436594153 122 114 111
0.1669123499701850 0.4884171931334565 2.3136795830252082 120 113 107
-0.6460270859086816 0.2869251787875087 1.7631243649596871 147 145 146
-0.6443393785417399 0.3598042511844773 1.7527999890864252 142 138 137
-0.6099078589051108 0.2865769128041714 1.7609560695682143 146 142 143
-0.5910509547855010 0.2866593629220056 1.7606470831114329 146 142 143
-0.6311691070941148 0.3611086665335431 1.7594041001655429 137 133 132
-0.3455522296088041 0.3019186330713884 1.7593407377775248 150 146 145
-0.3455522296088041 0.3019186330713884 1.7593407377775248 150 146 145
-0.6992121212041897 0.3601333386696779 1.7525770087630523 138 136 137
-0.3985195919880277 0.3017931171873420 1.7559257101827919 143 142 140
-0.6856269098817376 0.3616992032516854 1.7595885876443798 143 141 142
0.9099262302080700 0.3749689708971472 1.7375168736996385 118 109 94
-0.4523124736639442 0.3022826461851350 1.7559525996488359 143 142 140
-0.5314401132647881 0.3062487274571222 1.7724378628907789 121 109 95
-0.5314401132647881 0.3062487274571222 1.7724378628907789 121 109 95
0.8423340283609454 0.3763214108717430 1.7428955245244542 138 137 135
0.8423340283609454 0.3763214108717430 1.7428955245244542 138 137 135
-0.5064667213325307 0.3032315948379360 1.7573967338255021 149 145 146
0.8559902765338072 0.3757352718580428 1.7400963967278995 144 143 141
0.8559902765338072 0.3757352718580428 1.7400963967278995 144 143 141
0.8947345437441326 0.3755866323993698 1.7400999842471239 137 137 135
0.8947345437441326 0.3755866323993698 1.7400999842471239 137 137 135
-0.5463771331187190 0.3046878116648616 1.7631490629829722 143 141 142
-0.7541780806303852 0.3607388299153113 1.7530053683730098 130 128 129
-0.5463771331187190 0.3046878116648616 1.7631490629829722 143 141 142
-0.2890777082416475 0.3735306435515783 1.7520740797473158 137 133 132
-0.6170011332750232 0.3052323288243941 1.7584316258639208 148 146 147
-0.6009613274509326 0.3054725793934115 1.7621072309487225 139 137 138
-0.6723419943167185 0.3058654049287912 1.7592872021834622 141 140 138
-0.6727198296341004 0.3057115661293212 1.7595582075035157 141 140 138
-0.3441181558154424 0.3741385121423073 1.7519378152218361 149 144 141
-0.3441181558154424 0.3741385121423073 1.7519378152218361 149 144 141
-0.6567188147821087 0.3068426149367916 1.7647597813008509 151 149 150
-0.3281508179393637 0.3752309260643079 1.7561965351482465 143 138 135
-0.6567188147821087 0.3068426149367916 1.7647597813008509 151 149 150
-0.3281508179393637 0.3752309260643079 1.7561965351482465 143 138 135
-0.3977779273641973 0.3750421014016737 1.7518650369611730 145 144 142
-0.3977779273641973 0.3750421014016737 1.7518650369611730 145 144 142
-0.7105517691331205 0.3066028522212445 1.7604388610468666 119 110 95
-0.4524050397123336 0.3747538491347921 1.7500218276356818 132 128 127
-0.7108007425529229 0.3068113838320872 1.7616603063403133 143 142 140
-0.4524050397123336 0.3747538491347921 1.7500218276356818 132 128 127
-0.4925143792437912 0.3772987107837207 1.7569994387599039 145 141 140
-0.7681425830927688 0.3073070611029494 1.7639395038526962 112 103 96
-0.4925694775882657 0.3773553895002266 1.7572701698978008 145 141 140
0.8303494086898578 0.3235288272918116 1.7489955897544125 148 144 145
-0.4381391940846185 0.3768990802243137 1.7574652291019621 141 137 136
-0.4112874818439114 0.3216131569229342 1.7617357600788166 154 153 151
-0.5065069886492043 0.3763639561605343 1.7506124787103681 141 137 136
-0.5065069886492043 0.3763639561605343 1.7506124787103681 141 137 136
-0.5613337899434998 0.3768969092101263 1.7498194674022205 140 135 139
-0.4652094273143019 0.3228009288242434 1.7626879079224167 144 143 141
-0.5616304243136562 0.3771374716268062 1.7509707697562533 140 135 139
-0.4269836177499197 0.3211369980844067 1.7565983219975907 142 141 139
-0.5479358286428727 0.3787104855069862 1.7583145408766940 145 141 140
-0.5468938359549702 0.3780431909651516 1.7552126662251537 145 141 140
-0.6160921619027535 0.3768183107921363 1.7500723347243410 144 139 136
-0.4811038106454265 0.3210390698128639 1.7547437887430295 145 141 140
-0.5755440084893871 0.3239923314194114 1.7631778960948012 144 140 137
-0.5743230707423413 0.3230475487316382 1.7589268623479848 144 140 137
-0.6708579716124216 0.3776839604342491 1.7506211974012875 148 144 143
-0.6713784266742037 0.3776986336113796 1.7514540878019109 148 144 143
-0.6566339608013042 0.3789964745602824 1.7559315055314040 149 143 143
-0.6566339608013042 0.3789964745602824 1.7559315055314040 149 143 143
0.9210041568507787 0.3929428962794628 1.7354869225687373 115 107 94
0.9368611164571051 0.3925618626832796 1.7347784194577307 112 104 91
-0.6286653050362960 0.3237428192286828 1.7592460070647782 137 135 136
-0.7249338714571473 0.3776037136038622 1.7499530436095383 117 105 91
-0.7002731516895190 0.3241289477929302 1.7567242817308044 138 136 137
-0.7241616538786024 0.3770536297978430 1.7470502293519847 117 105 91
-0.7011385631089369 0.3245527134924439 1.7589568212438753 138 136 137
0.8688388800057252 0.3944032844876510 1.7404590539827158 140 139 135
-0.6862931695441135 0.3256585597086402 1.7642126914314358 144 140 141
0.8688388800057252 0.3944032844876510 1.7404590539827158 140 139 135
-0.6862931695441135 0.3256585597086402 1.7642126914314358 144 140 141
0.8854524513189940 0.3940951141051007 1.7388590787154703 140 139 137
-0.7691591972875511 0.3255941789309146 1.7619348236920016 123 123 123
-0.2624826552553546 0.3907218672038069 1.7486725074626897 144 140 139
-0.4368459611679594 0.3405617925142583 1.7597754827947523 137 133 132
-0.2624826552553546 0.3907218672038069 1.7486725074626897 144 140 139
-0.4368459611679594 0.3405617925142583 1.7597754827947523 137 133 132
-0.5076589694528288 0.3399579713008137 1.7530795082594803 152 148 147
-0.2468121857114734 0.3925581610287222 1.7545054279287029 146 141 138
-0.4926338071394732 0.3411838004561806 1.7600428492771636 146 142 141
-0.3175740095086401 0.3913163088870290 1.7480604544188272 143 138 134
-0.4927987271891079 0.3412570736955823 1.7604937658162840 146 142 141
