ply
format ascii 1.0
element vertex 698
property double x
property double y
property double z
property uchar red
property uchar green
property uchar blue
end_header
0.9125723266607715 0.3370909272245732 1.7522243810162588 128 120 107
-0.9154721818102249 -0.3201020427908439 1.9530421604872652 163 172 215
-1.1760638474713268 -0.3695984218998441 2.3580691112148440 249 255 255
0.1764395243524548 0.4787561962562413 2.3149164008371792 71 61 59
-0.8397266686243416 -0.3041941044671354 1.8687008092068076 123 136 171
-1.2703184225729547 -0.8950785914664503 2.6253988293123971 253 254 255
-0.7810712991830474 -0.2685720060003147 1.6137316898323233 89 99 135
-0.7667111672614946 -0.1671340760509038 1.6616527367326528 223 234 254
-0.7432949587458884 0.3555825202375055 1.7549930030098568 112 103 88
-0.9835787631362215 -0.2307318595263843 2.0907993560812494 246 255 255
0.8953474855738639 0.3672033033048767 1.7215448421194619 62 60 61
-1.5531939430211783 -0.2909030420525891 2.9225063486467242 181 187 199
-0.2814341416473097 0.3645476137603724 1.7552379719259554 63 57 57
-1.0758921719394436 -0.2363164756002351 2.2102397376706846 117 126 155
-0.9059604907296542 -0.1965366302225774 1.7761462056223860 174 178 189
-0.7317510764634747 -0.2667749276289494 1.6553245340811302 164 165 160
-2.1733226741542269 -0.5503562713514534 4.0549607141390727 134 149 180
-0.7757608916615194 -0.2635796249539288 1.6566333097087584 110 114 161
-2.5494150926091885 -0.5992576521197361 4.5092975539942222 95 106 138
-0.7706311017533517 0.3746137206766079 1.7564751725628247 119 112 96
-0.3655510185871055 0.3833413172831097 1.7537215510828625 76 70 70
-0.2590748167313011 0.3964999949500738 1.7556434771672182 120 108 92
-1.1761359820934958 -0.3266439798347396 2.4510360647209306 122 131 162
-0.4692010528625065 0.5000543244396372 2.1304005549021281 75 70 67
-1.4488357815317736 -0.3533064026903110 2.7725798828618746 88 99 131
-1.7002157788809142 -0.3250054212991288 3.9595915714410692 72 73 78
-0.2227366541972215 0.3140936415525016 1.3700541360815395 121 109 95
-0.5733878441769310 0.7646725136342515 3.2683062138481800 70 58 44
-1.9119767655679625 -0.3737022321744989 3.1984802192035766 89 100 130
-1.9119767655679625 -0.3737022321744989 3.1984802192035766 89 100 130
-1.0393301733584936 -0.2620359682015502 2.0404312854653655 172 180 193
-1.9142301916234359 1.0961617309251028 4.5070755798424615 137 133 132
-1.0928761971352592 -0.1925328225323645 2.1139472266491079 210 216 228
-1.0636957120698973 -0.2247034662688481 1.9099686584054185 198 202 214
-1.0530604541766786 -0.1536958722459836 1.7657851392381003 211 217 231
-0.2258570271151847 0.4368650054634078 1.7493804542998383 59 53 53
-0.8445878459936487 -0.1970279004142861 1.6733945583600791 72 76 87
-0.2300800922448267 0.4363416615830881 1.7495701626035063 44 36 34
-0.6997371545504751 -0.1731391627731761 1.4005353968204648 175 179 190
-1.4061717923910961 -0.8005330318836952 2.6351253838887452 134 147 182
0.8456636340526393 0.4526567693140358 1.7353449978287425 126 122 119
0.8247151726359144 0.4534333515989427 1.7307635518895674 138 134 131
-1.6370837464822470 -0.2582119822993593 3.7801806427036402 158 162 171
0.8839424722482527 0.4638256739175445 1.7357629591725730 120 115 112
-1.0915754603228620 -0.2097007432139351 2.1000010447532915 141 157 183
-0.1981160534204890 0.4624337154773964 1.7499694907834680 34 30 27
-1.1111714988216665 -0.6574087135248953 2.1607654533439891 252 255 246
-1.7041459168217008 -0.8614829670702140 2.9790598515944788 249 255 255
-1.4014944729105587 -0.1899179908848250 2.7876781308249088 244 255 255
-0.9600675772238124 -0.2002043811214440 2.0523522896425881 95 98 107
0.8680859121389863 0.5009870176703735 1.7354967310992966 146 153 163
-0.3855057688870779 0.4464283063216837 1.6004687759421947 129 121 119
-0.7772149526457519 -0.1699843834295442 1.7339489344452186 107 118 150
-2.2068787953915843 -0.2884449030182568 4.7248068670052712 198 207 214
-0.5284402566335454 0.4901543623072057 1.7442599071652658 133 128 125
-0.3095893170152736 0.4969581426570902 1.7439918224530226 64 59 55
-0.9311283027657278 -0.1466266390104183 2.0248513632240677 152 155 164
-0.3094672573687651 0.4965568553040158 1.7437510686510058 64 59 55
-0.1579011896037345 0.5010619326512334 1.7396916451871716 180 157 143
-0.5790888930553039 0.4990810665408924 1.7428231242064596 124 116 113
-1.6480671729682381 -0.1649487650361718 2.6482212714110545 129 128 126
-0.6323356896083363 0.5092638597212217 1.7379241205695137 124 114 105
-2.2607830261773492 -0.2801242719618368 4.1737982874681689 224 233 248
-0.0754147150011000 -0.0592478070898681 1.7867552799292270 177 170 151
-0.6261955562477396 0.5138739218252790 1.7308928498672367 187 190 197
-1.0259737909904265 -0.1152366674460546 2.0357396922551656 179 183 192
-1.0219566579919948 -0.5957169817573592 2.1249142870222935 249 255 255
-1.3745965098751225 -0.6952002333956420 2.5867505887992714 249 255 255
-2.2899954930759696 -1.1052337115645163 4.3335694032022642 247 255 255
0.6479297042044170 0.4856984081270907 1.4516702436464664 137 138 132
0.6237600291239876 0.4872884744890895 1.4517367053103341 120 113 97
-1.1412273086058602 -0.6351617346361004 2.3363016509922514 252 255 255
-0.0680807226238263 0.4944345163109145 1.5017927333007675 222 221 216
-0.0681017639924373 0.4945180692859619 1.5024426388531036 188 175 156
0.5963226069595861 0.4877675261901148 1.4525846746688569 152 154 153
0.4209986841220628 0.4879244602365935 1.4519840357686900 145 141 129
0.4203532382018054 0.4874829789760385 1.4504039130831805 200 205 208
0.0768117657488191 0.4920827906341444 1.4696580506776420 70 69 67
-1.3655876821970705 -0.5960310322223429 2.2175269440620800 118 123 145
0.4834634220151771 0.4910674461695534 1.4524131398268876 158 152 136
-0.6961186055567387 -0.0825633333682234 1.6603078480011042 213 221 240
0.0493185889526960 0.4913903126190727 1.4555534322805259 151 153 142
0.2798174946351263 0.4936027233808519 1.4474475460646545 36 35 31
0.6528447004527452 0.4988364099356586 1.4443186536871604 101 78 60
-0.2850924674288514 0.4955444245951817 1.4782698935429530 67 51 51
-0.0627468560756695 0.4929632072951236 1.4524147735697388 204 214 216
-0.1551245819019548 0.4922458341384250 1.4525946268018062 179 184 187
-0.7985764752696177 -0.4296124517820317 1.5030069452790473 243 251 255
-1.1235003693714973 -0.1344063734545049 2.3506899844635498 248 254 255
-0.6560143468267710 -0.0699612256972267 1.3042969736626131 200 204 213
0.0331980532102882 0.4953284215338181 1.4526658105285526 132 140 143
0.5930960412355384 0.5008591032682763 1.4443561021863001 149 115 106
-1.0833435359562744 -0.1121838639318866 1.8039345368367772 110 110 108
-0.0919491585841833 0.4948753863962165 1.4524737081226258 175 179 180
-0.7213911261933129 -0.0987778237952684 1.5336919323684353 249 255 255
0.6519414658336831 0.5011423143422861 1.4381029043542453 72 44 32
-0.0078608674268045 0.4964485937574365 1.4507685090971456 81 81 79
0.5200224427264889 0.5040184758544000 1.4445715420417404 142 126 110
-0.0576778613418101 0.4993012053365453 1.4499888234079124 63 66 73
0.5630408742014008 0.5009080176785728 1.4259072454670356 162 135 106
0.7073723723118067 0.5121267485586134 1.4458761246908705 60 59 55
-0.1525331808627534 0.5005176138892687 1.4494787496565780 94 91 84
-0.4895737584451845 0.4988010162290105 1.4709294344403840 71 54 44
-0.1066698920376689 0.5017928442086738 1.4507382413312366 140 144 147
-0.7471465864810973 -0.0838842697999143 1.6635338736112337 102 105 114
-0.2251097425236150 0.5004606667312039 1.4512250093271932 91 93 88
0.0687567678286238 0.5071474567341840 1.4527975925554160 58 58 50
0.5831234561169472 0.5048910110790296 1.4223765872157539 49 31 27
0.6658226579827353 0.5065158326202690 1.4232109847344803 140 108 87
-1.1962375722484984 -0.0422924734127837 2.1055564444969601 90 88 89
0.6659574076787144 0.5065800016807236 1.4236525767167356 140 108 87
0.7213328330485089 0.5116129259134711 1.4319308422411414 149 126 95
-0.4057908015290793 0.5005134917454368 1.4546732495550474 77 86 95
-0.3808776666203890 0.5017407278321839 1.4544654963776875 124 121 106
-0.4776126540364697 0.5019867949021283 1.4555534311385969 72 72 80
-0.8196784265910918 -0.0789413291379540 1.7832089381632936 82 85 94
0.3552717378074035 0.5126766636675179 1.4401537002061284 118 98 74
0.7205733714904993 0.5146008607293745 1.4250525946655586 149 127 104
-0.5698121032485008 0.5003801277449929 1.4558983290229541 86 90 99
-0.5780123710754655 0.5007977491788620 1.4559145705622014 68 75 85
0.6576752112382535 0.5108988743379606 1.4133240370820086 115 86 72
-1.3363521811372767 -0.5338136989983479 2.2023226168578396 231 239 252
0.0468632375843139 0.5139646160604113 1.4483329834528791 149 153 152
-0.3055659682228703 -0.0047988821934200 1.7887118130207122 233 232 227
-0.5972784352428115 0.5033512464240001 1.4562508441025019 74 77 84
0.5366579250520203 0.5101933971116753 1.4061447962420015 78 51 34
-0.6470638004828669 0.5051694842966452 1.4556058183031659 87 90 105
-0.2054909567517301 -0.0057652410744126 1.7912041161508707 226 227 222
-0.3182719585131197 -0.0048878508729524 1.7878243007344237 206 197 180
-0.5083419388928667 0.5089050701379051 1.4552049822926909 55 55 55
-1.1167693610110467 0.0030742583522065 1.8823917816169788 83 82 80
-0.5033128155788560 0.5108039296256925 1.4539445371548680 172 168 165
-0.5034304827044785 0.5108679524410829 1.4542923651694282 172 168 165
-0.2494725802297799 0.5175292450818505 1.4497915897804825 100 104 105
0.7151768677031770 0.5201502028060933 1.4112037763179603 39 20 13
0.7083375454976248 0.5193743790220005 1.4072128159527479 110 85 65
0.5199558764085630 0.5159468981643843 1.4071897654019243 158 131 112
0.6617750114965973 0.5143568461223397 1.3947619723758089 99 70 52
-0.5220478933638164 0.5145510948597263 1.4545821356344528 134 133 131
0.3479269669737936 0.5215235152540436 1.4261594186066362 79 59 50
0.6459415695374732 0.5154302179244107 1.3921127557747444 152 127 107
0.1162757724400739 0.5267068942428250 1.4433067127812662 131 114 94
0.4040105178885086 0.5182061629797911 1.4083750295612514 35 20 17
-2.2011743628309941 0.1601945129137056 4.2960800567302870 87 89 88
0.5606223383641582 0.5136218850418105 1.3861974664740122 118 96 72
-1.3414122108434510 -0.5326623363861587 2.3826475356982564 210 217 235
0.4489778799986379 0.5176552881332518 1.3958352408654564 86 59 48
0.6528795542046991 0.5184156702569431 1.3858465655979837 171 153 133
0.6528795542046991 0.5184156702569431 1.3858465655979837 171 153 133
0.5284298203416817 0.5160471279693870 1.3861210116211100 101 78 70
0.5293475422593219 0.5167540883088535 1.3878195517794718 76 56 45
-1.2426024243845772 -0.4563544958268280 2.0136694300359026 211 217 229
0.5838089959207114 0.5188293302733908 1.3854612583486303 122 98 72
0.4381884870539067 0.5190162319728728 1.3940734433286786 171 142 110
-0.3970063390719784 0.5239144623414222 1.4504773887135927 118 122 123
0.3020100421189011 0.2485661461494189 2.3250733065509737 82 69 60
0.4528840712582848 0.5189927997502763 1.3897667668423455 43 23 12
0.3020100421189011 0.2485661461494189 2.3250733065509737 82 69 60
0.4403766070708471 0.5201251720540893 1.3908552613297689 38 19 13
0.0296177231361452 0.2530413237075448 2.3350008191913605 57 49 46
-0.2978785394390552 0.5304300438723900 1.4502141282707430 151 155 154
-0.2179017349322053 0.5302389303132752 1.4455729434251170 102 95 79
0.8730428993981351 0.1990679714332620 1.7570137194665785 180 181 186
0.9216720916665136 0.2003799851862809 1.7828927742376466 172 175 180
-0.1654851840306590 0.5301244971698419 1.4395147481009800 94 75 61
-0.1654432524594822 0.5304013901190905 1.4396328843450599 112 94 72
-0.2934237695556505 0.2050022350133487 1.7681626583867620 209 209 201
-0.3213893571001448 0.5310149598669105 1.4471345522047661 101 98 83
-0.3286763098873741 0.2065387590512325 1.7853420690510406 181 167 141
-1.2567005427209315 -0.4178057523294250 1.9223041755305883 210 219 236
-0.3958888858373832 0.2051814219482839 1.7693182975692030 208 205 196
-0.1893796169397595 0.5318795904135135 1.4384204251678891 131 116 111
-0.1888813730852124 0.5317024309010082 1.4378651471129074 131 116 111
0.4082691507296659 0.5231280852975131 1.3854367288459324 55 34 31
-0.2883893381164505 0.5321148772818531 1.4389684513864811 180 175 181
-0.5617319525024220 0.2046204234389824 1.7702943816113510 167 157 132
-0.5694105099501225 0.2260218846160244 1.9421484984221269 166 155 133
-0.6089124869476991 0.2059822049084100 1.7825014176456440 164 153 131
-0.5479097816960116 0.5325022833504702 1.4150742693930720 139 136 129
-0.7692075517525813 0.2050682396663293 1.7713490550465427 141 137 125
-0.3848976676521842 0.2111601359417284 1.7856815625440448 69 59 47
-0.4169699623410117 0.2087800737617884 1.7688150089493777 49 47 48
-0.5121123956556235 0.5138183650760473 1.2228991038684913 78 64 53
-0.7686301742876386 0.2120714262293642 1.7813672389650850 56 46 34
-0.7986803233804252 -0.3641665584428591 1.7338513931844319 136 143 189
-0.7525839995803369 0.2150564594222143 1.7718894315223668 165 166 168
0.9060656694314133 0.2408247118713076 1.7554227830203408 66 66 66
-1.3020415763871467 -0.4499611231839265 2.3191747665968858 178 186 197
-0.4261814612531471 0.2386142030792958 1.7645079498910763 64 62 63
-0.4201305781663208 0.2407153079289755 1.7743571839261449 70 60 48
-1.4953666600825777 -0.4675070728272062 2.5634943110426409 100 106 122
-0.4541803528364191 0.2058448473206846 1.5031743901877699 146 142 143
-0.7704244731995346 0.2447734675873980 1.7628014442913973 157 155 158
-0.7518766153886800 0.2445333036334955 1.7639264660292466 121 116 110
0.8763435244389435 0.2579782293132589 1.7508212825844405 88 87 85
-0.6655012753946673 -0.5200592535711429 1.2371856917257689 250 255 255
-1.1858123424158888 -0.4168503485549913 2.3924247965739855 105 119 148
-0.2057689317495540 0.2582521034465518 1.7795617366868701 81 69 55
-0.6889996374133058 -0.2716499356544409 1.3822347597677926 251 255 255
-1.0161047357792081 -0.4048401507857314 2.2861644952807945 236 244 255
-0.9010814185244820 0.2198678443524874 1.5890232705759078 40 36 35
0.8506953629139261 0.2616443182972223 1.7543607151914882 65 63 64
-1.8359289811285520 -1.2761985431163305 3.5447985332009146 254 255 253
-0.7067896587449154 -0.2508595166866644 1.3690756902376608 240 248 255
0.9039892439800085 0.2760512861575701 1.7503060273225044 80 80 78
0.8503142124440090 0.2766741660570451 1.7520193813519271 81 79 80
-0.4740764836442252 0.2765673230659690 1.7630278153656691 63 62 60
-0.7702931032216607 -0.7345105297535562 1.9656088326642553 137 133 130
-0.7189211891671949 0.2775027863932649 1.7631565659239523 75 65 53
-0.7466920625352638 0.2794483278688182 1.7627676884603372 63 59 60
0.8769453498886677 0.2942092057662074 1.7485355362659329 76 64 52
0.9051502030940862 0.2963652708582037 1.7518034496261401 71 70 68
-1.7008244834200450 -0.4546281728985367 3.3085290745322169 122 131 162
-0.8757919066356931 -0.2450873152240212 1.5409109769637011 112 119 135
-0.2649506028351196 0.2827502372553611 1.7061904531573155 77 68 51
-0.3646057569478808 0.2914888597867235 1.7592808247394176 61 59 60
-0.1295158233683187 -0.6716848719153047 1.7615106413128909 200 199 194
-0.7808548131203389 -0.2359764428962223 1.4882858911834211 227 235 248
-0.8159996011088522 -0.2809514375887536 1.8748417794894985 124 124 136
-0.8270326634171471 -0.2380328118991354 1.5408095146243705 216 226 238
-0.7456688019011546 0.2956716925374430 1.7596771982179720 60 58 61
-1.0589500911529317 -0.2573435788128176 1.7597456937293314 186 193 209
0.9044265474139381 0.3117711362801989 1.7485328428276512 69 60 45
-1.9797631871891221 -0.4469287934959282 3.5054855376920679 241 255 255
0.8499397459975966 0.3125134155824848 1.7481833886959572 77 75 76
0.3413628474218648 0.4203830903717957 2.3173951505382462 82 75 69
-0.6133222573238598 0.3088861650615571 1.7596400959154543 126 119 109
-0.5243211477540402 0.3169259670921549 1.7613856212573036 137 131 131
-0.2540845681110995 0.3269182083973033 1.7561926400050820 52 51 49
-0.2260761359030394 0.3279461744855451 1.7568179185283348 66 60 60
0.1215059471399649 0.4233098944742419 2.3182144886110190 72 64 61
-0.8079439546426224 -0.5417940344210557 1.5246747691555265 247 254 255
-0.2259460892439482 0.3444605416657095 1.7543379947778155 61 56 53
-0.2812425859853620 0.3450752032260287 1.7550389524553702 56 51 48
0.2540463052596401 0.4388499489847673 2.3090144306144031 60 50 41
-0.4653048877107042 0.3527883815900691 1.7759112214745298 64 51 42
0.6403166274167139 0.4818537755734920 2.3072550966882659 176 176 184
0.0144752394665836 0.4797537305089028 2.3163919104327757 51 43 40
-0.8727131053746379 -0.6014499962333364 1.7797326280454573 230 239 254
-1.1557993266742068 -0.7929313619657081 2.4709976328087011 249 255 255
-0.3645663310049467 0.3643997692760331 1.7540748525940519 75 71 70
-0.8979997182394303 -0.5574329527226659 1.6663530067585466 235 244 255
-0.9630765806872076 -0.6341168929163347 1.9559700637151030 182 187 206
-0.7677453932219691 -0.4674565801072585 1.6940220811675089 157 163 211
-1.0548643584585937 -0.6815498286555266 2.1544975568562608 236 243 255
-1.3644776141055492 -0.6583433149185650 2.1300644931824988 114 122 145
-0.6684546153587171 0.3736610282490954 1.7535591014672385 122 113 98
-0.2808712327161599 0.3810762148021315 1.7516114875801068 56 52 51
-0.3102898237091359 0.3827066459439845 1.7528796063637961 60 56 55
-0.5205632361456767 0.3855066671581295 1.7539727180064664 61 55 55
-0.6926473187021408 0.3878038418630906 1.7533824969403269 64 62 63
-0.2548122046357392 0.3990530530472115 1.7504171350896549 65 61 58
-0.2816933348493588 0.4006182007501284 1.7515229649290969 71 67 64
-0.5195850905169349 0.4022104545594061 1.7466099099786219 64 52 40
-0.6374091259017359 0.4039331571529987 1.7515940503239913 59 54 51
-0.4734099124229790 0.4220819875131053 1.7511893905204370 73 68 65
-1.1783195926579204 -0.5381192754898921 2.0348401795844224 111 114 133
-0.8615930995767104 0.3894254726984219 1.6097649337283317 50 54 39
-0.3712449431306118 0.4370818406954572 1.7489650139505910 41 37 36
-0.3896161532384154 0.4387120717655093 1.7503792561750526 55 51 52
0.8530551878683734 0.4522381867315811 1.7326467739400444 120 116 113
-0.3392915601959812 0.4408154937123429 1.7461667084634069 133 127 127
-0.7514663163671195 0.4379362709516776 1.7492887379733761 107 97 85
-0.6370281325406283 0.4395831025808349 1.7482058508517460 65 60 57
0.8253275152767252 0.4584126558481897 1.7386083319377266 31 30 28
-0.3682631939573949 0.5513865076296944 2.1044181007974569 73 60 44
0.8248820233684103 0.4763989826074344 1.7350988557239226 38 36 37
-0.5335126574819031 0.4618610059349230 1.7453203753112254 130 125 122
-0.2256987997927107 0.4732106511296578 1.7468722038776372 54 46 43
-0.6421502773713809 0.4629778199284311 1.7452115063698928 134 126 124
-0.5606389766014519 0.4772358529941186 1.7489066647406613 67 55 43
0.8826739103072903 0.4926839937596020 1.7236742677853494 50 46 37
-0.5022451560694485 0.4797288429892904 1.7438664608467653 129 124 121
0.9318505858562419 0.4978052850154039 1.7252820358984435 116 115 113
0.8906544499719641 0.4985214726028379 1.7277357281593462 206 222 235
0.8896326342138484 0.4979520540370643 1.7258564035780637 206 222 235
0.8735782353639876 0.4985089484523298 1.7279223888324606 162 159 154
0.8881618812317650 0.5019248331665825 1.7388155959612486 219 231 243
0.8882813696270451 0.5017174246064566 1.7383065507055742 219 231 243
0.5330840466464484 0.4988218175250023 1.7337855624410061 62 51 49
0.8595987477973873 0.5062661827125232 1.7377684465276839 44 44 52
0.3585669380866297 0.5009254302729008 1.7339084134780147 27 17 8
-0.1509005506249735 0.5019470446119113 1.7406467706584843 178 155 141
-0.4156556095944268 0.4990698759657000 1.7477265134524971 98 86 72
-0.1599538436883312 0.5056705032426825 1.7385701531318418 76 56 47
-0.3088322497263770 0.5095751746729941 1.7429401070651604 59 55 54
-0.7417107689910196 0.5016777787798565 1.7447425688988769 96 91 87
-0.4197290382662032 0.5114265202076156 1.7424970725826434 48 46 49
-0.3127477712136533 0.5122436563539063 1.7368197327872219 184 184 184
-0.3041397126950212 0.5138269806898341 1.7392564380969049 231 241 253
-0.4743161549899695 0.5120427691195572 1.7434988188070784 55 53 58
-0.3288690935680092 0.5125516832855188 1.7364480717736257 211 220 219
0.7105797621378352 0.4843253215462826 1.4556032412498374 81 80 78
-0.2035873837597834 0.4974526113160111 1.5326146257040807 38 23 18
-0.8603891828206923 0.4954287592680348 1.5649623489198188 144 138 142
0.6737372608323978 0.4892166071834688 1.4526509392356375 163 171 174
-0.7036226793083904 0.5202505905229207 1.6231312467753425 211 190 159
0.5634074190193983 0.4886230940430865 1.4514152882659344 172 178 178
-0.9950566240150513 0.6259779801494539 1.9605501304078221 35 33 38
0.6663102551360734 0.4894226370620517 1.4396232922871857 50 55 59
0.3455946721346399 0.4894489427691017 1.4502613284143422 141 147 147
0.2703196943185618 0.4902578663220822 1.4525147237681006 195 206 212
0.5613908979320229 0.4915881002058489 1.4471436524093670 71 76 82
0.2921394655321866 0.4905066097895079 1.4498695771406431 177 190 198
0.4869931048442334 0.4932659458077689 1.4494946799954376 53 53 53
-0.0325669710065783 0.4937596127155160 1.4693304564730121 67 57 45
0.1389191599008526 0.4921425284482033 1.4527941744961801 154 156 153
0.0107027413318158 0.4938018564677962 1.4549951610610936 183 184 178
0.6591985312197646 0.5016553559110193 1.4432074472257883 156 121 101
0.0697533151887745 0.4951325897876168 1.4507282640004471 61 68 74
0.4514813067247472 0.5005879652269660 1.4450489941331073 165 160 154
-0.0772054213966635 0.4961128232905976 1.4543002210193920 69 65 62
-0.0211090719531002 0.4964375509314786 1.4519368775231440 76 78 75
0.0184192029525612 0.4990922424918957 1.4519750264098543 115 116 111
-0.1156369874572810 0.4958657519030346 1.4511560987749421 38 37 33
0.2118670863335189 0.5006895891092707 1.4488148483140935 154 158 159
-0.2039176937866871 0.4975000583359643 1.4580815264490787 30 29 34
-0.2039084421891822 0.4977793347004619 1.4593866422383581 24 20 17
0.2050428972590905 0.5014471346600141 1.4486534258420221 104 102 90
0.6317873381579467 0.4996348662908517 1.4185452179050093 120 97 79
-0.3816221598035788 0.4968157532848125 1.4615243171899568 147 144 129
-0.2351197010080574 0.4970987343552685 1.4550927428972851 62 63 58
0.5042098583380525 0.5042145877427205 1.4381073896797889 120 93 66
-0.1828588236575576 0.4988253268326476 1.4527518179241710 65 68 73
-0.5095892585904710 0.4976713463390779 1.4716115720641967 183 185 182
0.5363254274276451 0.5021449099606680 1.4291979372273171 42 31 29
0.4513386417154591 0.5047325038516957 1.4331009272581032 62 43 39
0.4513386417154591 0.5047325038516957 1.4331009272581032 62 43 39
0.4018964950212088 0.5069056296294853 1.4345346721365919 51 29 15
0.2446901487592631 0.5100593523203041 1.4477874958822861 66 67 71
0.7025885504002867 0.5126236957669037 1.4336405001951924 167 142 112
-0.4241934272003659 0.5005643712874401 1.4547804384155700 54 63 72
0.4638312581207371 0.5093300577062756 1.4291948698909780 79 58 53
0.5500537298490509 0.5059635542852670 1.4153997955319177 113 83 55
0.5500537298490509 0.5059635542852670 1.4153997955319177 113 83 55
0.7262195320940332 0.5138716270933982 1.4280961211442473 42 24 22
0.7262392726913388 0.5139010853690106 1.4281168992537361 42 24 22
0.5280184667214569 0.5081453286006982 1.4221019144766229 40 24 24
-0.3850886308754282 0.5039542550627114 1.4534345636821961 155 162 168
0.4522172777076931 0.5087922042985182 1.4212301456724186 46 27 23
0.4522172777076931 0.5087922042985182 1.4212301456724186 46 27 23
0.5783975013228851 0.5077089844825439 1.4098445394197063 118 84 57
0.6760778138719900 0.5153159339268433 1.4151494247517238 91 68 60
0.5949533150643829 0.5098816191877750 1.4012433467384959 40 26 15
-0.5430324615944705 0.5071874464230243 1.4568945731658856 85 80 77
-0.0789282025481274 0.5191178813146614 1.4493970011444612 110 112 111
0.4972396058187698 0.5110046703111482 1.4021373701479343 145 118 97
-0.1866912416037707 0.5172466302880820 1.4477394555791945 91 87 75
0.3873979785773395 0.5159307473398298 1.4178146228391237 30 10 9
-0.1751174623447564 0.5195080831589630 1.4474921209512897 81 78 63
-0.5172861816722334 0.5144113984356208 1.4551634386671017 69 68 66
0.6921845825150588 0.5216310998774880 1.4078550294355159 124 101 83
0.6891700509236146 0.5198707035648944 1.4028334623556298 166 144 130
0.5699906555766613 0.5147200171562728 1.3920372907834913 64 40 28
0.0211249740285853 0.5278987222077387 1.4475615366927281 40 38 39
0.1239304971905992 0.5257133017087661 1.4360394605112692 172 147 116
0.6182247194269748 0.5167119549810012 1.3867013118885487 140 110 84
-0.5193828876406048 0.5183784609091524 1.4551576110622788 118 108 96
0.3989210054461346 0.5200903131055148 1.4059672085807913 79 61 47
0.3978919188718744 0.5191082122139337 1.4033798748012654 114 93 76
0.4155268782850536 0.5211830848592567 1.4091247805096589 143 123 114
0.0292473824893418 0.5294285494138021 1.4431970465686099 169 151 131
0.9911418703787455 0.8451696855678344 2.2773538350368439 150 124 109
0.3619940368604982 0.5232011704679530 1.4062810519997144 44 26 16
-0.5128284431342041 0.5240399625577888 1.4544450133370470 73 72 70
-0.5726028219963805 0.5215985983831456 1.4528089988232842 116 117 119
-0.5726028219963805 0.5215985983831456 1.4528089988232842 116 117 119
-0.1914790679273204 0.5290512729318265 1.4428087867513757 69 51 41
0.5926094933537385 0.5193037272981172 1.3776052518179125 41 27 27
0.3972995405719366 0.5227032086865715 1.3984627279860464 44 25 19
0.5976585064790557 0.5198638757831585 1.3760039992780992 53 38 33
-0.6711178173008858 0.5216105729321796 1.4524179217217319 126 128 127
0.5297001138994578 0.5214455758662423 1.3781014646735577 106 78 54
0.5397108379025961 0.5197439764785511 1.3704701863920457 97 80 62
0.5319612322201538 0.5197804100121602 1.3691169051269876 171 147 119
0.5319612322201538 0.5197804100121602 1.3691169051269876 171 147 119
0.5903912205367164 0.5157724911864616 1.3544035291042802 99 81 57
0.0434999547560018 0.5246293546862066 1.3962429126713760 116 74 50
0.4083171355462391 0.5259710006735332 1.3698542481637390 102 83 68
0.4083171355462391 0.5259710006735332 1.3698542481637390 102 83 68
-0.5375935425838032 0.5332573231007954 1.4213718757621137 153 151 136
-0.7895658922262841 0.5321330257650975 1.4145814229293352 111 103 90
-0.5194264609631167 0.5136008030179692 1.2233372245236431 99 83 70
-0.5194264609631167 0.5136008030179692 1.2233372245236431 99 83 70
-0.4978430180814986 0.4935744604668635 1.7444924513553768 43 37 37
-0.4754790723027743 0.4947788042653529 1.7452822654330336 48 42 44
0.8258296529681747 0.1849222775589786 1.7351160223323447 186 176 149
0.8351958863103657 0.1996026590711731 1.8012129694170469 89 78 74
-0.2627653073290657 0.4983730821637313 1.7395869851312442 138 127 123
-0.5472322025482336 -0.7073697474909959 1.8494133136418660 205 205 205
-0.2897632700907334 0.4990432392741609 1.7410580110520963 139 130 125
-0.6079075976429640 0.4939898792115882 1.7446497585720331 50 45 42
-0.3177763831191729 0.4987525115281891 1.7402410669931045 139 131 128
-0.5056417799494788 0.2046687813735986 1.7703100683099009 170 160 148
-0.5841030552079259 0.4962062513389410 1.7466829853346031 49 45 42
-0.6780363860230790 0.2039362252716279 1.7805595802380374 175 164 142
-0.3724010986886472 0.4997618784263220 1.7410151813173984 130 125 121
-0.6384693229108267 0.4965487206794551 1.7470893560140561 64 56 53
-0.4285438498239528 0.2105887206226872 1.7774296265521758 66 56 44
-0.4122920167623083 0.5028417006643274 1.7480067730560873 133 125 122
-0.7188953427282558 0.4959535155951594 1.7453713557346393 36 27 20
-2.0809243615047239 -0.8177882167497603 3.7767654999241880 95 100 120
-0.4830389862587705 0.5021802972417876 1.7406900203331315 142 134 131
0.8519116452550937 0.2400389914480930 1.7566885553731777 86 84 85
-2.2143297243773015 -0.8934771052927223 4.1752634520462237 244 255 255
-0.5220539869419264 0.5044124903560397 1.7476702317961221 136 128 126
0.9178031857370555 0.2383942072137720 1.7322181595956601 70 62 49
-0.4748850881661062 0.2420151630679042 1.7772749755174830 71 61 49
-0.5283024714118495 0.2401727510351306 1.7669868509147257 74 74 74
-0.6769576514371838 0.5105973828202562 1.7278953166237925 37 37 47
-0.8994735720243396 0.4824584164363222 1.5559627758217087 39 40 34
-1.1686036317704220 -0.4916044715963160 2.2601156350841154 134 142 181
-0.7470772431617383 0.2594061153713615 1.7637866912323008 60 60 62
-0.7194977398318980 0.2610032293570148 1.7657530531196020 80 78 79
0.5111330492402955 0.4873655412135446 1.4558396342130859 107 112 116
0.3787802508724236 0.4897592536946830 1.4535160557254672 128 133 136
0.6599510210449727 0.4950797957929993 1.4500169338834412 68 64 61
-0.6628301392322569 -0.7025800840766773 1.8527307069271488 130 132 144
-0.6635489946444804 -0.7026376680393818 1.8535402779145871 130 132 144
0.2035374206116373 0.4911974925798290 1.4540266634586072 171 177 175
0.2446243638708667 0.4893183401219605 1.4510874038069228 201 206 210
0.0240932250721859 0.4932409406051198 1.4660167661020966 60 59 55
0.8535061212713733 0.2983591502997889 1.7560446706536887 58 50 37
-1.1921010674213588 -0.4260766309894352 2.1503489339785116 67 73 87
0.0522789708216085 0.4911987922062811 1.4524686211043829 176 187 191
0.0689505113550828 0.4905316288836302 1.4526522976333660 178 187 192
-0.0219803421630783 0.4929991464165666 1.4587993791973326 136 129 103
0.2738191311845599 0.4961230274705108 1.4516210186702003 65 70 74
-0.1943547453522307 0.4954122146344722 1.4588830774748673 160 165 169
-0.6101504341656373 0.2966872804744275 1.7654670045242866 63 53 41
0.4400004187015336 0.5006144516398241 1.4479130145911105 120 116 113
0.4400004187015336 0.5006144516398241 1.4479130145911105 120 116 113
0.3487898896368188 0.4128375664302502 2.3209106732215745 138 130 127
0.8788360270802484 0.3148544806785222 1.7497382811391975 68 66 67
-0.1756832284596055 -0.6965851716990680 1.8422563156907636 183 172 152
-0.4449005344745295 0.3115181935898969 1.7593464964392722 52 50 51
-0.3604448502074302 0.4953879272761237 1.4554765420255054 146 153 161
0.3962375253351175 0.5061083592901443 1.4469180129553607 60 49 45
-0.4736036483989219 0.3128562037299798 1.7613360672592093 63 59 60
-0.5560440479361037 0.5008122519522492 1.4779751582926277 96 80 83
0.9332611344968890 0.3297474320340837 1.7484243440890079 69 61 50
0.6091247602498439 0.5052252676841583 1.4261173330724979 70 42 28
-0.6931238465649694 0.3156757804650737 1.7618919717365462 51 49 50
-0.3481768915917293 0.5002217496908508 1.4515008533852019 50 57 65
0.9051252548126294 0.3322309298422575 1.7473231879514350 62 60 61
0.8513374337689129 0.3328460211315686 1.7491236580411629 60 60 60
-0.3760165019037759 0.5046514175065528 1.4564279910454836 58 59 63
0.4231289437523362 0.5096536506423586 1.4314600404114546 148 121 102
-1.3493279655272672 -0.3633616974945376 2.4528849718134946 190 198 211
-0.2790338045977480 0.5068356304840944 1.4519163283333529 54 62 65
0.8504508855966064 0.3484458520224777 1.7458593307483841 73 71 72
-0.8780370908270090 -0.2851500534946009 1.7966180868214721 117 124 166
0.8795882376296392 0.3509181329336026 1.7474768689509652 56 56 54
-0.6667251585399063 0.4998633093286428 1.4598417690423418 204 209 212
0.5348284287582951 0.5093266252604544 1.4148551699147012 132 110 87
-2.9934287110712710 -0.7154685169372776 5.4585709882310676 110 119 148
-0.3645650002620577 0.3476318188351262 1.7562218847519440 50 46 45
-0.6641033550075093 0.3498813296955829 1.7582315299166296 58 48 36
-0.5511998808798572 0.5041167866014717 1.4570476245219977 71 67 68
-0.2125008517755144 0.5126444253518996 1.4511484726758117 78 83 89
0.2769910423305701 0.4857718232476124 2.3092785605513981 125 117 114
-0.8043898594227908 0.5006768293670052 1.4541723249084695 130 122 119
0.3300078332205993 0.4859074196990421 2.3082635607870783 97 84 68
-0.6602261171915188 0.5062369038080363 1.4581628878859358 74 75 77
0.5698742831114277 0.4872551515851309 2.3022811624536357 34 30 27
-0.9443877509980624 -0.2474163038972886 1.6410142288727152 74 77 92
-0.7565160620579026 0.5070296199565238 1.4572677984369848 60 60 58
0.3913631617927633 0.5160717866667414 1.4123820089707451 113 83 59
0.9045380025907155 0.3835296618987878 1.7406553071378901 65 60 64
-0.2021424360649096 0.5219855807370403 1.4483190900015677 48 45 38
-0.6640675249856669 0.3695962922768923 1.7557898552332314 51 49 50
0.4565377641147882 0.5164600704502944 1.3994560474202873 122 95 76
-0.7190859557298906 0.3703473614363103 1.7558827179533032 49 47 48
-0.4196837230955945 0.5202556455127878 1.4524164100386501 82 79 70
0.9308966938081873 0.4010369213816456 1.7369784671595052 54 46 33
-0.7183829326073200 0.3859755886005058 1.7528728362242736 60 59 57
-0.6385390258460742 0.3873254350683595 1.7546883766402783 63 57 57
-1.1588618309460654 -0.2918423584838021 2.1984602340649224 77 81 93
-0.1558087577376096 0.5258254388235419 1.4442215967032541 56 54 55
-0.9322264312487923 -0.2646819637599708 1.9529486599904942 93 106 138
0.9036281379072370 0.4041871701202309 1.7399590587332281 59 57 58
-0.5578295657739449 0.5203701876486760 1.4535868507475846 111 115 118
-1.1320638187434342 -0.5927338522120924 1.8421818078745755 252 255 255
-0.5399604198267703 0.5266791023968878 1.4537122162715452 110 109 104
-0.5391651119462665 0.5263127112428203 1.4528446742501677 110 109 104
0.4103557056181927 0.5223056081077102 1.3791095018315647 39 20 13
0.8501111041442680 0.4208342567030851 1.7382162620372335 52 51 49
-0.7574785668812307 0.5308757282539532 1.3974277230910022 126 103 85
-1.1694475629700063 -0.5555449040847805 1.7829350159157678 247 255 255
0.8790408821965978 0.4230250596311390 1.7399642630393011 60 58 59
-0.6095814640352998 0.4213858651298362 1.7506647147566676 53 41 29
0.8280016150934533 0.4417731194001064 1.7446737100956906 53 47 35
0.9061548202650622 0.4406710978991553 1.7372711162657752 67 63 64
-1.6603576659462507 -0.3170049834860983 3.5471350949508884 220 228 241
0.8511137364571670 0.4572241235675247 1.7365190589338264 60 56 55
-1.0935845406003399 -0.6010369454734448 2.1793636212601646 254 254 255
-0.9428185810792382 -0.1958972116919677 1.9458232237096547 83 83 93
-0.6656555461290848 0.4420529264215179 1.7495110404854197 55 46 49
0.8811453862234043 0.4598957342278929 1.7387274161210315 55 51 50
-0.7468848027071291 0.4408947093349198 1.7488041150291167 57 51 53
-2.1131552316294857 -0.3128783344355084 3.8627119156697707 247 255 255
-0.8151232426914516 0.4503542575184393 1.7663819753835128 65 77 65
-0.3093205287220536 0.4565179709442757 1.7486754857793123 73 65 62
-0.4444820291363287 0.4556404685586771 1.7465072749893962 68 63 60
-1.1752288400775983 -0.1709652271974749 2.0625573246907583 205 211 223
0.8796887566579927 0.4746558225938854 1.7344903357477797 62 58 59
-0.5847163593341212 0.4596566628743273 1.7494940426230130 49 45 44
-1.2976448539863421 -0.2016728573643484 2.5967246407604732 163 167 179
0.8522554319703501 0.4784305163880304 1.7358714157494801 59 58 54
-0.3896982554568825 0.4751178441501449 1.7475031333034381 42 30 18
-0.4993213914430349 0.4769985158575408 1.7468552002906212 52 43 44
-0.7210055425891849 -0.3874258427276843 1.4774629129735715 150 155 175
0.8530876502751293 0.4941928039946512 1.7350633912042064 64 60 57
-0.7467604146130380 0.4776797970545460 1.7463777512637415 47 43 42
-0.7401554556034847 -0.3947533640250344 1.5364440281422678 234 242 253
-0.6648643815991118 0.4783615063623701 1.7466361217681934 48 42 42
-0.8825002241267854 -0.4363735428035320 1.7952136610059377 134 139 158
-1.0365531421112459 -0.1336499019861744 1.9273755608414138 196 200 211
-0.9281986685151948 -0.4582330414284368 1.9134131886660397 155 158 211
-0.2535920779497454 0.4917496360346678 1.7455510063849933 51 44 38
-1.0795946057947161 -0.4228243699981690 1.7940200128264749 117 123 139
-0.7756916468702542 -0.4338599165756705 1.8286077999798678 234 241 251
-0.4408826606283642 -0.1174356597000649 1.7970889423034260 162 158 155
-0.5530262010763403 0.4939153590246141 1.7438390111295183 40 36 35
-0.7218190362097220 -0.1023016162863387 1.5265930314911527 71 70 76
-0.5304881595436226 0.4957263860198713 1.7464049182823687 55 47 45
-0.6639372906369136 0.4944066171503964 1.7442163040141214 50 49 47
-1.1320608712397975 -0.4091516908131449 1.8877058672538831 214 223 240
-0.1401720867559577 0.5049271348434448 1.7391892482386750 70 56 53
-0.6931314404208841 0.4965961210968805 1.7453345898689681 39 30 21
-1.0663920021707192 0.5737948353600780 2.0319310520659326 58 62 47
-0.7479298211834536 0.4981402744257587 1.7460235508766084 44 40 39
-0.2031789358269012 0.5147732091871536 1.7516773512294108 200 200 200
-0.8720431746376262 0.5027772913701209 1.7123954606005765 34 33 38
0.7205594503412631 0.4867691976102174 1.4516275620465957 152 160 162
-0.6931632997121230 -0.2817443933026429 1.2802663437343655 93 98 117
0.6282723017232429 0.4868886002948700 1.4509457961996728 141 141 139
-1.2174281338924748 -0.3846388001576323 1.9846145033527547 65 71 83
0.5792098545004286 0.4868916915743366 1.4516507124565399 165 174 173
-1.0614523956281734 -0.6039978733355380 2.2349484232839951 90 99 114
0.6095538376672521 0.4878747941607500 1.4493964978993719 155 154 150
-1.1202745109004812 -0.4003326569399514 2.0821298964044819 219 226 236
0.5379269432152479 0.4878761366529700 1.4487835529605226 96 100 103
0.4093760292031651 0.4869300789813275 1.4505383618930567 146 148 147
0.4095434464155945 0.4873398416121537 1.4515111677129169 136 133 116
0.5735516486036056 0.4906606475925313 1.4497839510942105 62 67 71
-0.7674236438650357 0.5207950564644626 1.6053973043122065 41 30 28
-1.1380948259903858 -0.4392188531815728 2.4108099207479654 97 106 137
-0.7674236438650357 0.5207950564644626 1.6053973043122065 41 30 28
0.1191769453181420 0.4894022720169397 1.4514818685890323 173 177 176
0.3713986627270320 0.4968635660038369 1.4482634521204534 55 51 50
-1.7466657643876915 -0.5032367278729112 3.0778885370627300 115 125 161
-0.8333890684659452 -0.3081073551891506 1.6913569074360022 222 229 245
-0.1820045974615840 0.4910327352417008 1.4490171382584400 128 125 116
0.0773606777541417 0.4965621671469738 1.4522933512303389 48 44 33
0.0771148100654315 0.4962151817721181 1.4512609326200421 48 44 33
-0.3877527317513448 0.4931159821762221 1.4662589845606600 86 67 69
0.6685727278292626 0.5026879461480395 1.4434332027121932 50 36 27
-0.2524815982215306 0.4944165826392938 1.4552811528858827 172 179 185
-1.7613463200812527 -0.4990253004148055 3.2227717792136956 130 141 173
-0.8996372202479617 0.0757806992075994 1.9495896251795752 57 56 64
-1.1208229891569117 -0.3079235656529484 1.8299914553426495 214 222 233
0.0712581764829022 0.5013708070100009 1.4500440978523916 154 161 167
-1.3357642828728085 -0.3773540996465229 2.3434328053614419 214 222 233
0.8599677960831145 0.2018882781655155 1.7568964616261382 182 186 189
0.5571477928968390 0.5027263666201077 1.4335862976030436 56 36 29
-0.5213766925068855 0.2048625941101423 1.7829538945690810 178 167 145
-0.5584395853878864 0.4979918228098183 1.4693486689159525 178 182 185
-0.3186644801241943 0.5007569842464634 1.4550115748842669 66 70 73
0.6230673518090858 0.5077375960912301 1.4251923280315160 144 118 95
0.6875205030184462 0.3135831825461401 2.3269335237804802 73 75 87
0.8401998090323133 0.2317891454640283 1.7507875582922967 151 151 151
-0.5820913268382408 0.4978931767162320 1.4608918929516375 183 192 201
0.5461141412023326 0.5053465732519844 1.4206641170027483 64 39 32
-1.0344006750824080 -0.2980416218725244 1.9564388116655831 243 250 255
0.5461505993289829 0.5054726687981481 1.4208286625139410 64 39 32
0.8610060607592069 0.2333404944608531 1.7586386743770206 153 151 152
-0.3953897512296015 0.5038877628453832 1.4509673281265953 66 73 79
-0.9528512142821115 -0.2935528983451424 1.9344301099967713 242 255 255
0.5863844113067848 0.5069935398757874 1.4122965210475225 101 74 57
0.4580899407901011 0.5115229654002136 1.4215530442029187 91 64 43
-0.7095257882276730 0.5014923599796816 1.4580853042367139 148 141 131
-0.5839058026161472 0.2427810685768651 1.7748616448448893 68 60 47
0.5890550295134133 0.5075875147722595 1.3993687270149064 162 139 108
-0.7507129905637044 0.5012002639565658 1.4591521559463678 134 133 128
0.8863180392202389 0.2513696869326718 1.7535449108300394 153 153 153
0.2478460531412054 0.5202799494213275 1.4467671769396673 136 137 132
0.5803878950801215 0.5079728704157493 1.3965381628170690 153 122 91
-0.6948246947534852 0.2426931646100387 1.7737725383783043 77 69 56
-1.7918941238938964 -0.4171302556354126 3.1379813746118153 244 255 255
-0.6155708946879206 0.5045183589131951 1.4568077747905752 77 83 99
0.8690147288491615 0.2509659335711733 1.7521077624544059 151 151 151
0.6144916309526223 0.5090035586722705 1.3962724110201197 120 90 64
0.8690147288491615 0.2509659335711733 1.7521077624544059 151 151 151
-0.7472337990616326 0.2412873491235316 1.7663977353490932 62 60 63
-0.7475986299706540 0.2414435002170948 1.7669611606388504 62 60 63
-0.7940073170747668 0.5012913731338258 1.4545641361391006 146 139 133
-0.5027231030324425 0.5097932974761316 1.4555007025684881 141 125 109
-0.2626514155694867 0.2468256262956970 1.7630640946961267 145 141 142
0.4272602150932140 0.5113252239867301 1.4069382213033215 178 156 133
-0.2626514155694867 0.2468256262956970 1.7630640946961267 145 141 142
-0.7058533640455912 0.5057154115471100 1.4544474036002737 82 86 89
-0.8100341390914555 0.5077305317708898 1.4597767159162729 51 51 49
-0.4810992529675747 0.2477752249012877 1.7617314300306830 150 148 149
-0.4804600746309437 0.2478400593634305 1.7619260193426702 150 148 149
-0.8328454243986835 0.5090315355527925 1.4588038363006266 57 57 55
-0.5354077670729055 0.2485452372857484 1.7637157765691873 143 143 143
-1.1793966036278689 -0.2953919986659285 2.2764200128691212 250 255 255
-0.5342246449233845 0.2481946620880657 1.7609226373360136 143 143 143
-0.5763792718469377 0.2505467458115729 1.7694402228897750 146 144 147
-1.0136166391431394 -0.3761780905554007 2.2122630670436121 234 245 255
-0.7270182416741499 0.4703942135084482 1.3876418498889753 113 114 119
0.0116060070140591 0.5289820420051440 1.4409704724299468 109 88 67
-2.0774795292734960 -0.4171302671069120 3.6508711076827529 145 155 190
0.6089090844186588 0.5178053084137727 1.3821944814267564 129 102 75
0.6089560667697496 0.5181171346131582 1.3824070233095227 129 102 75
0.4231341686475782 0.5202961692075319 1.3967759405948055 142 112 86
0.9109614164778120 0.2675628848428653 1.7500725930276357 149 145 146
0.6586895638779405 0.5209610898209592 1.3843473876639227 42 27 24
0.8302853150469506 0.2694746388477373 1.7552172679464280 144 140 141
0.5473156188120472 0.5174495016488422 1.3807085005667885 42 28 27
0.5473156188120472 0.5174495016488422 1.3807085005667885 42 28 27
0.8436529252742945 0.2691706544492326 1.7561179620375873 149 148 146
0.8443120441958832 0.2695733359395838 1.7557492927846741 149 148 146
0.6580890231517104 0.5208359090381546 1.3728001153955016 144 121 89
-1.0763964404659865 -0.2584043475342358 2.0615514703884572 99 109 144
0.8570793544934060 0.2692227373193196 1.7509433675298123 148 148 148
0.6603042813142990 0.5221226574954375 1.3768161601927615 144 121 89
0.3615674000859774 0.5247776345443310 1.3974861393692521 176 155 150
0.3615674000859774 0.5247776345443310 1.3974861393692521 176 155 150
0.3885591710498526 0.5249937537340421 1.3932966116699017 128 102 79
-0.2350453256838483 0.2644417054217514 1.7598948050740726 142 138 137
-0.2195233902102404 0.2655592463065324 1.7670493521195048 143 139 140
-0.2066446587154179 0.2641529208557830 1.7593228246772257 147 143 142
-0.3445349362575312 0.2646698756605007 1.7586558483579171 150 146 145
-0.4388690669263051 0.2665573001448813 1.7672087202465947 139 138 136
-0.3997807432517690 0.2659986879828979 1.7645815725342147 146 142 141
-0.3841126133033913 0.2663700485276713 1.7671892130918756 150 148 149
-0.4532483509665461 0.2658677301439069 1.7599928349157425 148 144 143
-0.4535558318252041 0.2657605359118773 1.7593485841739600 148 144 143
-1.1592976811084272 -0.3029371248201591 2.3806228547610342 210 224 253
-0.5483307079460344 0.2680427637026525 1.7685781384497041 143 142 140
-0.5483281507173998 0.2681415023383912 1.7684324552183845 143 142 140
-0.5083429188229318 0.2658424315388937 1.7602872304558670 145 143 144
-0.5094519221632996 0.2664996220368656 1.7636224606923145 145 143 144
-0.6033646786163263 0.2681240185089652 1.7662903317824787 144 143 141
-0.6033646786163263 0.2681240185089652 1.7662903317824787 144 143 141
0.8690078928959831 0.2867582560891082 1.7490450041284953 145 144 142
-0.2628920909029752 0.2825779534855362 1.7578712164421302 145 141 140
-0.2469524114489151 0.2834269403809953 1.7653081500562187 142 137 134
-0.3173504440850931 0.2826387677296501 1.7578558939002615 139 135 134
-0.3025202724728872 0.2835717384373417 1.7638554770829289 141 140 138
-0.3025202724728872 0.2835717384373417 1.7638554770829289 141 140 138
-0.3581066577847462 0.2842882197918254 1.7660321626571318 113 106 96
-1.2688320837265217 -0.2375920393375170 2.5658861015895753 244 255 255
-0.4268355122215045 0.2827415749662908 1.7568043634845498 147 143 142
-0.4124187300398278 0.2842396760694750 1.7653082988901563 144 143 141
-0.7281166293609559 -0.1643268336916256 1.6187583852099956 112 107 114
-0.4805434825437596 0.2840482919498363 1.7573109253954309 146 145 143
-0.4676981700814409 0.2860959678850590 1.7716211099626096 128 114 101
-0.4675471361300095 0.2852036646943099 1.7675167911334724 151 150 148
-0.5217323336596064 0.2855725483992559 1.7660022559694584 142 140 141
-1.3615274560474890 -0.1734436957710352 2.0894296418728464 196 202 216
-0.6302220588007431 0.2873349842857402 1.7648832439072644 153 151 152
-1.1552699245945108 -0.1512858443928637 1.7910961710083573 230 238 251
-0.7572705951646962 -0.5528471082139993 1.4982866439745000 251 255 255
-1.4558902750650708 -0.1746983110761208 2.3064498740273125 181 188 198
-0.7535340230785764 0.2873519541707562 1.7596041594154856 136 134 137
-0.7402040655734907 0.2884311120483203 1.7668452379801425 115 106 91
-0.7404458230661755 0.2886492145291508 1.7666518656754082 137 135 136
-0.7693452928211333 0.2881716059167070 1.7651893682842759 128 126 127
0.8977018500361307 0.3045381477778445 1.7509735776458024 148 147 145
0.8977018500361307 0.3045381477778445 1.7509735776458024 148 147 145
-2.3524425864231171 -0.2523427583984497 4.2886289066331011 86 88 113
0.9110717669558820 0.3040747770507104 1.7471032442165453 149 148 146
0.8436171981329180 0.3053604847480811 1.7513044853800233 145 143 144
0.8436171981329180 0.3053604847480811 1.7513044853800233 145 143 144
0.8560795503224879 0.3042617046761392 1.7457889940563445 143 142 140
-0.2070175163665367 0.3001017668147853 1.7571167157111622 151 146 143
-0.2897943885188912 0.3007204392864215 1.7574987775094106 145 141 138
-0.2891981319604380 0.3005350774287587 1.7556879244450048 145 141 138
-1.1202575542812998 -0.7519666896837192 2.3880574555892049 248 255 255
-0.2343851546516025 0.3002071437447238 1.7584572049884679 147 143 142
-1.4852399532295490 -0.1471235418538143 2.4551017981256655 70 66 67
-0.2188455696765121 0.3016385362506521 1.7635470798946220 151 147 146
-0.9468205671308334 -0.1324664498562774 2.0322444896862537 248 255 255
-0.3289107646932558 0.3012833023457859 1.7627002675368202 143 139 138
-0.3289107646932558 0.3012833023457859 1.7627002675368202 143 139 138
-0.2737582933872058 0.3015864167005326 1.7627847833540558 151 147 146
-0.8557075702303006 -0.1078986354782566 1.8399815179161858 242 255 255
-0.9151200113528556 -0.0723914511362597 1.7769314142787975 100 106 122
-0.5607410694444722 0.3025234221136303 1.7555535811678988 146 142 143
-0.5620123587894810 0.3032543636498995 1.7586777876436606 146 142 143
0.8345068728413648 0.3175627968408062 1.7677804799639505 68 58 46
0.8249647411296147 0.3200072413073706 1.8214315639444982 59 55 52
-0.9301444051423542 -0.1027788144173729 1.9545051581207220 50 49 54
-0.9238145005710715 -0.4924170274369923 1.6625685498466520 252 255 255
0.9342493238829506 0.3199340278684453 1.7394801185645670 120 111 96
