ply
format ascii 1.0
element vertex 700
property double x
property double y
property double z
property uchar red
property uchar green
property uchar blue
end_header
-0.1865593682225358 0.3802255211298008 1.5954203487041037 41 36 32
-0.3355852418901376 0.4755480939631968 1.2951893971331863 147 144 135
-0.2354610570892350 0.3805165516698090 1.5925570353573102 52 47 44
-0.2107379629457530 0.3811722434975690 1.5946215331862186 55 51 52
-0.1656225571310766 0.3841987783476059 1.5948977926030166 133 127 127
-0.3346115981856373 0.3817968617785618 1.5870728231005973 53 47 47
-0.2568877804270334 0.3858303434780916 1.5927699490632754 133 128 125
-0.0631339857851795 0.3958863468633925 1.6009942811928719 64 59 56
-0.4620679165229615 0.3865439742085016 1.5796197159515779 133 128 124
-0.1885758752125043 0.3984141213794014 1.5954713106456688 61 55 55
-0.4562278237566756 0.3978481933726139 1.5766853333290562 56 51 48
-0.3394115550461059 0.4021550349954144 1.5843461334560676 130 125 122
-0.3893787898321049 0.4026384745160849 1.5824203207476106 107 97 87
-0.0880745572527727 0.4121633896131857 1.5982157229800549 46 38 35
-0.0637366615377540 0.4136052925850259 1.6010120394764968 54 46 43
-0.1384415261511419 0.4123526708282579 1.5966725872204310 60 53 47
-0.3358271453230287 0.4146117292363638 1.5851888647000747 51 47 48
-0.4825251865544627 0.4148547303412484 1.5764151950242635 53 49 48
0.6175426590912207 0.4410347235043208 1.6248040019487220 62 51 49
-0.3377515018758644 0.4325174289105145 1.5864166633540158 55 47 45
-0.4389134290648156 0.4358234146984150 1.5798731235970127 113 104 99
-0.4862559926423015 0.4359923745733823 1.5746423915675032 101 94 88
-0.5170292931682090 0.4371227980089543 1.5654797330325723 42 40 45
0.8287164570066857 0.4365735998602361 1.3960702488097674 168 173 167
0.8202350052147799 0.4420626595834789 1.3824829247176968 56 61 67
0.8102293904553272 0.4420847813606871 1.3806024821261040 71 76 82
0.7151060581305690 0.4422093307948483 1.3765999724753850 59 59 59
0.3950432869357296 0.4405186001612844 1.3635214171544410 195 206 212
0.0746818143099326 0.4415123476388982 1.3615881855087337 60 56 55
0.4627066597926536 0.4440654242935209 1.3642254729131724 54 55 59
0.8266178392827721 0.4482086974634238 1.3773382474494082 106 114 117
0.2151832427926975 0.4430713491952344 1.3503863734331079 61 68 74
0.1336077760146298 0.4437671484146638 1.3470049095419578 54 51 42
-0.2387089520023020 0.4435849522440554 1.3520230319656175 91 72 76
0.7347398363308231 0.4506015448858934 1.3729665717281976 56 45 43
0.4915324114164276 0.4497034255492163 1.3642427386293343 104 108 111
-0.3486351160945851 0.4418684999164969 1.3352203438237946 178 182 185
0.8140089237802183 0.4579430492009315 1.3803126745659198 59 63 66
0.5590889068141083 0.4517824906523232 1.3568195830827443 74 51 43
-0.0019089978403408 0.4488880188719567 1.3388391574419050 45 46 48
0.4967260107798361 0.4576965108404256 1.3635552737023233 56 38 36
0.7882458361135835 0.4617745668697610 1.3766963145958198 60 59 55
0.4743787076446705 0.4591244911568820 1.3628199504856615 53 51 54
0.3724724632429144 0.4580238417930946 1.3572083092065315 66 67 71
0.5627670611490773 0.4548797474914390 1.3482799924868849 127 78 71
-0.1933668117354866 0.4487404390180588 1.3308176107895129 155 162 168
-0.0037153740181296 0.4530686029798842 1.3373866779613781 123 123 121
-0.0677149457818686 0.4527725729876840 1.3366363707071940 51 55 58
-0.3835724279299610 0.4467952636628643 1.3219857815967608 74 77 84
0.1662498733384678 0.4587792141922214 1.3468631525330372 50 49 47
0.7844911646723780 0.4627033195865892 1.3654986215433504 167 142 112
0.7087439392606255 0.4584490443999996 1.3359863833937218 71 43 29
0.0964407978867815 0.4625890331874345 1.3405497459973610 124 128 127
0.6651547794535470 0.4578481394239840 1.3257304932520961 49 30 23
-0.3161608736653392 0.4573247060833707 1.3252160274360769 105 98 88
0.6798536818363610 0.4615097875270607 1.3250788290724076 41 26 23
0.5723755243590063 0.4659608061609092 1.3180397095040235 42 24 24
-0.1153209760553000 0.4730114295577606 1.3327542061119999 151 155 154
-0.0507931739094602 0.4746156765478954 1.3345961575079297 60 58 61
0.7418856363719840 0.4686660405353738 1.3196902834483244 171 153 133
0.8314266527502463 0.4727841446122237 1.3308600388909402 132 104 90
-0.1362943394470482 0.4736395665017665 1.3297865757177085 101 98 83
0.6797565273670805 0.4685692809436423 1.3152239605723552 122 98 72
-0.3040440927172236 0.4742238048189692 1.3203441413181962 59 60 65
-0.5071540632965796 0.4322079646134021 1.5763872563993171 48 43 40
-0.1565441535590881 0.2918579666400394 1.6079556660856271 140 136 133
0.8319309491110208 0.4398376534361501 1.3842680892231130 74 81 87
-0.2046954145981216 0.2921958447256418 1.6027813591046847 139 135 134
0.5206077450224170 0.4379743368586575 1.3679151528399458 146 148 147
-0.2536349429521132 0.2924380652721776 1.5995089721741744 137 133 132
-0.3026774058996010 0.2922141061026363 1.5944039478482737 146 142 141
0.2463546455085052 0.4389530041416294 1.3529922846297719 139 143 144
-0.3519172384708189 0.2924546313906370 1.5925169651178197 150 146 145
0.6663073247977327 0.4380637728582290 1.3762648739627275 178 183 186
0.1173771441095010 0.4388974070283134 1.3518630017361390 149 154 157
-0.3184254670350793 0.2927312747835766 1.5947064596365779 152 148 147
-0.3671835819949108 0.2929042258296551 1.5919012667605177 145 141 142
0.7969899841485950 0.4435285041628743 1.3837381031108100 66 67 69
0.6680280331278970 0.4419331753302758 1.3737111343157884 62 67 71
0.3984850857725028 0.4450669772328308 1.3607498741890256 65 70 74
-0.4156826918266509 0.2928365933063805 1.5882140003581755 143 141 142
0.4351820516381820 0.4444091259334088 1.3632168424215836 55 55 55
0.0355364000365627 0.4401206763112215 1.3469506034812329 86 91 95
-0.4645100617898534 0.2928229559078381 1.5852833325022053 144 138 138
-0.4495018824025971 0.2932578110988379 1.5862116939224247 142 140 141
0.2216457316796199 0.4435524904436037 1.3511464364410133 62 60 61
0.6186886547159093 0.4488801018217055 1.3691199426325391 52 55 60
-0.2463586988325692 0.4416453218435272 1.3362368751260068 179 183 186
-0.4996697930346427 0.2934808723312172 1.5854788998366101 141 137 138
-0.1974376371212329 0.4422840260578015 1.3377796470057453 195 202 208
0.3113878576664414 0.4517252845707347 1.3566045629733923 53 53 53
0.5518399774249912 0.4532508031810749 1.3584798827306646 67 51 38
-0.1601279189442403 0.4454774862854773 1.3307628481109635 50 57 65
-0.2611288959881700 0.4459308236446525 1.3272211991203773 58 61 70
0.7013146492216460 0.4543437043007537 1.3532063915760748 91 68 50
0.7466429557202602 0.4556820816316864 1.3554530614997320 137 110 93
-0.0981598958639234 0.4517701337392406 1.3346948403563270 54 62 65
0.7128026538722499 0.4574481305095421 1.3517722701577117 144 118 95
-0.0973281860517866 0.3072582039719817 1.6060572822389618 143 138 135
-0.0822936313837730 0.3071072140929662 1.6062445398718419 147 143 142
0.5272063353163386 0.4581046677445429 1.3452580897609752 168 139 121
0.4831365204347834 0.4622943804285136 1.3482580048899260 64 44 35
-0.1474903109613037 0.3078050695053755 1.6050820409218731 139 138 136
0.1235034971549784 0.4635468307559719 1.3457252628204459 49 49 49
-0.3487859614702165 0.4624304266218951 1.3230534650199488 111 115 118
0.0816074897825967 0.4637272341177425 1.3421857656797003 110 112 111
-0.1324321765482854 0.3069954277680645 1.6043829414149813 140 134 134
0.8079533348320825 0.4692953121492053 1.3412311032703188 63 35 21
-0.1319183842271847 0.3066777472982623 1.6034438517971368 128 121 115
-0.1817976268765553 0.3076116233852865 1.6024430830947831 141 137 136
-0.3328461161403903 0.4683974353457202 1.3245411387793511 110 109 104
0.3292927790007198 0.4702524044464089 1.3552220444279839 28 28 30
-0.3211501569198753 0.4583142839854877 1.3237169395067589 71 70 66
0.7163369457988619 0.4634771178520543 1.3290805216746568 79 52 35
0.7993908999229395 0.4687901625118867 1.3197879659428935 128 105 87
0.5267843762882860 0.4649697763266466 1.3306337388077174 39 28 24
0.2572512636618129 0.4720430415592807 1.3462811782650212 131 114 94
-0.1950640802420150 0.3071403907565405 1.5967664197165092 140 136 135
-0.2473483782707694 0.3089183808882194 1.6025705148202958 140 135 132
0.8172119166052242 0.4705673410199477 1.3426850623824771 80 53 36
-0.3081244040850867 0.4658140727613888 1.3257336279531311 73 72 70
-0.2301025113654116 0.3080834971580710 1.5969169671920456 147 146 144
-0.2933590382854649 0.3079559148075754 1.5920947440823043 144 139 136
0.7732743631885083 0.4694773117683744 1.3360044020847293 166 144 130
0.8200987433360268 0.4706814338157382 1.3198782672841609 140 122 102
-0.2794391426677101 0.3080860110502102 1.5945602607239020 142 138 137
0.7567095341725502 0.4683597657594434 1.3232139439257553 72 52 41
-0.3290141020474537 0.3089807976127680 1.5936466355058934 143 139 138
-0.0905643059990334 0.4732117538725009 1.3263311862488802 49 48 53
0.5117964822288589 0.4709924293491807 1.3194152009655018 44 25 19
0.7476486356267295 0.4716439696113994 1.3203639097282889 42 27 24
-0.4263432927041608 0.3094347075341016 1.5867839221140181 137 133 132
-0.4259223468899320 0.3092708555293509 1.5857531232245936 137 133 132
0.6273809990615807 0.4691766789052945 1.3091616621121467 59 43 43
0.3926586324491027 -0.2774452383904080 1.6559786192967227 198 197 192
-0.3917307224238304 0.3092685402993037 1.5872768174308942 140 139 137
0.7344884492484182 0.4721415343750654 1.3050876728017911 41 23 23
-0.4752421659906615 0.3096738161383771 1.5840100019452517 143 141 142
-2.1580863389548246 -1.5711040563952996 3.9519455085731066 131 143 183
-0.4753970286385277 0.3097254111905545 1.5843603515115121 143 141 142
-0.4407636416948255 0.3094091152644425 1.5858707106957253 142 138 137
-0.5248821106508086 0.3096889086978988 1.5822050985694183 134 132 133
-0.4904402271998506 0.3094263497495144 1.5832670596099134 138 136 137
0.9465429144695462 0.3332493653685514 1.6534999035166524 137 137 135
-0.1212347941173991 0.3236162866460766 1.6036829027861108 137 133 132
-0.1066329289910778 0.3238736608534321 1.6055053289175174 146 141 138
-0.1698769424848831 0.3234380022834339 1.5980443207072705 149 144 141
-0.1556000481151429 0.3240065511431884 1.6018733646899306 143 138 135
-0.2188564114271358 0.3244255377363526 1.5980300973800625 145 144 142
-0.2673975431715961 0.3235710833726271 1.5915667607457487 132 128 127
-0.3165007082572565 0.3246954839784178 1.5905445245767607 141 137 136
0.8444250084793562 0.2043230136664113 2.1747708412469238 67 67 75
-0.3020913629795571 0.3245713757736039 1.5917907245973946 145 141 140
-0.3525924717074493 0.3258135238310158 1.5914353568694848 145 141 140
-0.3519837091327882 0.3255902675662700 1.5903393581391185 145 141 140
0.7299496349692758 0.2600738206357947 2.1635905471437327 73 75 87
-0.3679700186512276 0.3259945382459782 1.5916065371637769 140 135 139
-0.5320263006619902 0.2187740110833366 1.5868640657452942 60 60 62
-0.3666784929237061 0.3255729546416905 1.5893669656689637 140 135 139
-0.1413701027500822 0.2501992890987449 1.6119419454257531 66 65 63
-0.4155193202897928 0.3250263254677296 1.5851987698124177 144 139 136
-0.3573482997976279 0.2668500047952119 1.5919875912254293 56 54 55
-0.4017623480488560 0.3260658365036228 1.5889285180331938 140 136 135
-0.4649490286360841 0.3254909732655040 1.5834064635878242 148 144 143
-0.4503008106818195 0.3257348349071775 1.5851031939490023 149 143 143
-0.4996643926317886 0.3258378764092603 1.5830950595443209 144 138 138
0.3679660483846689 0.4074656563769361 2.1448428961951360 96 88 85
0.3192100434783636 0.4066628060805885 2.1372010112128428 84 76 73
0.6189384465630832 0.4120910931770361 2.1508355448704664 110 109 114
0.9226229485862193 0.3498038987428272 1.6525216826136151 140 139 135
-0.0613626571895325 0.4205788304534317 2.1151330695836594 49 43 43
0.9374192723725381 0.3493390935818079 1.6510729058213380 140 139 137
-0.4095123246728936 0.3510082024623082 1.5857853960979720 65 60 57
-0.2601830515194036 -0.1201559139880526 1.6261776371233025 146 142 133
-0.0979729536422581 0.3397940813839571 1.6052822118498793 144 140 139
-0.1466072257133590 0.3395136002622248 1.5980258866144081 143 138 134
-0.2469094834288463 0.3413525059394967 1.5987298941066921 139 135 134
-0.2303333269735678 0.3405792264573327 1.5958520278154840 145 141 138
-0.2793542804787125 0.3409004484379773 1.5927040620490651 141 137 136
-0.3289446966400891 0.3414749705100922 1.5908585101822170 147 141 141
-0.3431104797216454 0.3411886182681903 1.5870708758413685 138 134 133
-0.0408261424975439 0.4297683604619633 1.6011078008969784 53 48 44
-0.1116524592078913 0.4288059295240461 1.5961480808260462 49 41 39
-0.0892542669801561 0.4305328180953785 1.5998268015673562 51 44 38
-0.2382606313141879 0.4317606112981765 1.5922334601356682 51 43 41
-0.4412113539953939 0.3416824161831236 1.5824624830144580 139 134 131
0.5398158189244890 0.4434520359951414 1.6292480184489544 76 57 53
-0.3083040004085961 0.4310151777957766 1.5863694316071848 43 37 37
-0.3581878430716740 0.4311528791627337 1.5834711921602169 40 36 35
-0.4263930045298120 0.3421615634283747 1.5855461786996352 142 137 134
-0.4575341651281607 0.4308395806709948 1.5782826777082020 50 49 47
-0.4758686518456450 0.3421809249901044 1.5829891587692129 137 133 132
-0.4898543642313144 0.3419407063401083 1.5806397271491011 136 132 131
0.6635106409588534 0.2486447995458694 2.1611786407463316 71 75 86
-0.3688307404796731 0.1945318239022382 1.5976054639646329 169 169 171
0.4581277046235747 0.4143614129308140 2.1482042077861148 131 123 120
0.3607678893847783 0.4145937203825577 2.1426072319194036 125 117 114
0.2784658988517608 0.4131370643394816 2.1289344445400782 114 106 103
0.3104592115898471 0.4136164960969256 2.1315860750792903 126 118 115
0.9016828404195739 0.3682808109291591 1.6577251198044294 132 131 129
0.2293712022282468 0.4137509133981017 2.1290257286246552 122 114 111
0.2613085249350907 0.4130995227732315 2.1273110056841702 119 111 108
0.1159408051784530 0.4144063629093770 2.1277755015543285 104 96 93
0.1340268293143939 0.4142165094518388 2.1262419650876159 107 102 98
0.9242359366430578 0.2206827947403015 1.6646224957047764 151 151 151
0.1647484219279445 0.4141589049090210 2.1261450936309725 115 107 104
0.0338816649297097 0.4146767939200787 2.1250412457377510 102 94 91
0.0674082294116060 0.4144844386226447 2.1236935154722181 116 109 103
-0.0565383422470609 0.3563516552287032 1.6044883678715667 137 132 128
0.8634906291490504 0.4119672170563310 2.0341299808570370 56 52 51
-0.1568068901642459 0.3566766966255870 1.6012785073325011 149 145 142
-0.0826071695027167 0.2098178930929817 1.6166550270029350 144 140 139
-0.1215928011107542 0.3561485353675901 1.6014763711665239 137 132 129
0.9058832394729823 0.4250961630669245 1.6457625120764463 59 58 54
-0.1692684246369688 0.3556797292145067 1.5958761516042510 148 143 140
0.9484220876594770 0.4318978679345690 1.6503902652464360 116 108 106
-0.0965455402318574 0.2097436479059958 1.6092521669428832 145 141 142
-0.2195534961815637 0.3567144135379898 1.5961895738463614 141 136 133
-0.2293435318294142 0.2092307060949733 1.6053431678237016 149 148 146
0.6563682362129711 0.4420900784425276 1.6280612403322909 80 53 44
-0.1948989520652345 0.2088592562177654 1.6027198811860934 142 141 139
-0.6521916620874185 0.4355720769707475 1.6097244481311568 42 40 43
-0.2044329272028288 0.3566658143930299 1.5955737061987398 139 135 134
-0.1803646873442276 0.2097540255341878 1.6086407465410069 143 142 140
-0.2683883488560893 0.3567962156417573 1.5923524276059600 139 133 133
-0.2430965079208221 0.2092138257153600 1.5996721520564556 144 142 143
-0.3860901764830108 0.4328791638243713 1.5844832385748771 49 45 42
-0.2922125226353330 0.2095488167256791 1.5971705164779029 150 148 149
-0.2541607294741368 0.3565668255326430 1.5937636705013898 142 138 135
-0.2788652262272180 0.2105850795898837 1.6051873405818855 145 143 146
-0.4995566907521443 0.4444488968114471 1.5665605502525695 44 45 49
-0.3417301657207542 0.2100501300999607 1.5977954521074793 143 143 143
-0.3401822158384468 0.2095258061108374 1.5940966268095893 143 143 143
-0.3029898366511918 0.3576930298123615 1.5910033962673038 137 133 132
-0.3668063187833023 0.3576041930553587 1.5867025705584759 141 137 136
-0.3915403196492890 0.2108088891139706 1.5954882720632784 143 141 142
-0.3521870135987994 0.3581284097355510 1.5882425774846669 138 134 133
-0.3779236773173976 0.2112490398372851 1.5989029548380187 146 144 147
-0.5373534758260827 0.2098745706321279 1.5817093575050549 133 133 133
-0.3171653047700902 0.3571000623433181 1.5864678694950070 140 136 135
-0.4164729180385435 0.3582861612757637 1.5838570416281932 139 133 133
-0.4654974660968117 0.3580312280708580 1.5813532967988673 135 134 130
-0.4501715737249293 0.3581623940735492 1.5819390697475348 142 134 132
-0.5146656085571812 0.3582293274288243 1.5790025969586712 140 136 135
0.8858196356332710 0.2363388110690224 1.6560858496732840 144 140 141
-0.0728790245856117 0.2265477588554687 1.6140330637983611 142 138 137
0.9219400772651036 0.3823970023973255 1.6478751232344533 137 133 132
-0.2230352783251212 0.2272525141158784 1.6125083270522962 146 142 141
0.9352071260140383 0.3809599751606251 1.6422004566652646 133 129 128
-0.2056849873135172 0.2265799144411555 1.6072380858002071 150 148 149
-0.1718674160574227 0.2266035950589659 1.6091124577841740 150 146 145
-0.2543514580810184 0.2262380000829640 1.6034954233537408 139 138 136
-0.0963885074762834 0.3719593383787452 1.5987368733567799 143 135 132
-0.3048048984132123 0.2267782947843372 1.6030478402006316 148 146 147
-0.0821389027302603 0.3720453260498403 1.6011239046310728 142 137 134
-0.3524699295681389 0.2270213723005604 1.5979533790211837 143 142 140
-0.1459438277278516 0.3722252497494317 1.5971554352716586 145 140 137
-0.4043468904303573 0.2270929709191035 1.5983068560698965 144 143 141
-0.1310183899484796 0.3723878267789841 1.5998533550713598 143 135 133
-0.1311123582888175 0.3727565308169162 1.6007133983810313 118 111 105
-0.2295003654291920 0.3733327783789855 1.5965848769860627 141 135 135
-0.2786101092300594 0.3737546864929746 1.5921863483528857 140 135 132
-0.5136221305028974 0.2276416746004266 1.5855397563973930 142 140 141
-0.3421565254968121 0.3741598206401747 1.5863925572727653 134 128 128
-0.5520406280151174 0.2281084495085970 1.5887260381282522 139 137 138
-0.3287067372323448 0.3748288826063339 1.5902176135162418 136 130 130
-0.3919234283257336 0.3742990791179578 1.5850743499801350 131 125 125
-0.3773936832240652 0.3747638576179833 1.5868268478701861 138 134 133
-0.4404822400169843 0.3741859673879391 1.5812413729510215 141 136 133
-0.4265807600741144 0.3745070525240839 1.5832575513660720 135 130 127
-0.4757786539363864 0.3748536583474695 1.5812820299173949 131 126 122
0.9251462486459620 0.2537139372834785 1.6648272174512302 145 144 142
-0.4895219290132575 0.3742439864251187 1.5779246226357122 135 131 130
-0.5498785947801502 0.3748911005969551 1.5762570356863406 126 122 121
-0.0836497442580630 0.2426878609637536 1.6150089942047714 142 137 134
-0.1489623896160447 0.2429601521310660 1.6132512359169535 139 135 134
-0.5249435531497085 0.3748614891923213 1.5784289387761981 131 127 128
0.8856985127008723 0.3985513695055158 1.6421413389065467 129 126 121
-0.3420662973176117 0.2430037934725550 1.5948684253211014 138 138 138
-0.4267148456702141 0.2441557163811780 1.5929483160353044 153 151 152
-0.4093003736043572 0.2433839675613012 1.5923159294643985 146 142 143
-0.5531685115045885 0.2445756843185900 1.5888405954285236 128 126 127
-0.5391684117991297 0.2443222358632803 1.5856428409063743 136 134 137
-0.1692597610217497 0.3885708235155483 1.5944724664710646 144 136 134
-0.1549881262798826 0.3895283637251825 1.5985938542720044 155 150 146
-0.1546889252087645 0.3894551569185346 1.5979402713703332 135 128 122
-0.2180535721126715 0.3889312552377689 1.5928058801408349 142 137 134
-0.2038962912919021 0.3897083909862978 1.5963196116261722 139 133 133
-0.2681562305027453 0.3897443987802440 1.5900522399439756 136 131 128
-0.3175225143296541 0.3901341801500649 1.5873440713394409 136 131 128
-0.3037094365064077 0.3907450803117807 1.5904067094026462 139 133 133
-0.3515230361281131 0.3903502262676268 1.5856750180611476 136 131 128
-0.4035191885294383 0.3917333830853971 1.5878967632970005 136 131 128
-0.0726560907917909 0.2580572363995441 1.6091328441485615 125 120 116
-0.3674063067408529 0.3901592402874205 1.5847342982483470 134 128 128
-0.1563445762999392 0.2585304125408078 1.6066587408949282 143 139 138
-0.4163159973961474 0.3907607580861788 1.5822439758528133 138 129 130
-0.4661670918198695 0.3905628058602420 1.5803105741027565 138 130 128
-0.1238864895901338 0.2594588403970508 1.6135264904456748 145 141 138
-0.4502852036962520 0.3905689768925762 1.5798462443634667 132 127 124
-0.4995312462321986 0.3912369015321728 1.5785710504385482 132 128 127
-0.5138987228327330 0.3908487726419356 1.5757579724454684 131 127 126
-0.3027208077225174 0.2594342293846547 1.6001243493253881 144 140 139
-0.3654568295385168 0.2591986019525386 1.5926798723493911 146 142 143
-0.3513573010571542 0.2595609740986042 1.5956905964989727 143 141 142
-0.1310026852963994 0.4052779970845782 1.5977194262083796 134 126 123
-0.1819636254472832 0.4064624721830586 1.5979758940802729 136 128 126
-0.4128966382587450 0.2591899399517015 1.5856459839301369 148 146 147
-0.1453880359459564 0.4050536336116686 1.5941321257394117 138 130 127
-0.2451887119310487 0.4060669928985239 1.5911647798128643 135 130 127
-0.4645756617100377 0.2601576227313149 1.5867376834778752 141 140 138
-0.2296192244068718 0.4059510075893923 1.5910780535148523 139 134 131
-0.4645288531097313 0.2601490322689161 1.5866308046837956 141 140 138
-0.2944462323145413 0.4066700152147402 1.5886425825233161 132 126 126
-0.3921362631757773 0.4060440410946607 1.5797246694874887 135 130 127
0.9387585001029614 0.2851097248085008 1.6589831941104305 145 145 143
0.8892969261021050 0.2858178638636276 1.6612593944292264 148 144 145
-0.4898403847343859 0.4070257673984911 1.5768011356126088 129 125 122
-0.0973166220986226 0.2743499536392465 1.6054058396238884 140 136 135
-0.4780666292529518 0.4091929575476024 1.5846973504796524 126 118 116
-0.0842002965590097 0.2754349752226747 1.6127837900207700 147 143 144
-0.5249713904667845 0.4078588804099262 1.5763311129379243 137 131 131
-0.1471207688352320 0.2746483722183173 1.6062844254392969 145 141 142
0.9323759183863669 0.4321395193965649 1.6524076971560895 115 112 107
-0.1336544148128671 0.2755329085008227 1.6097284276235728 139 138 136
-0.3272444045328133 0.2759744078482480 1.5949680755823963 143 139 138
-0.2956503886000674 0.2760763149983664 1.5999254232221252 145 141 140
-0.1055693115938168 0.4221213289352698 1.6008240883208937 140 132 129
-0.1201853445473355 0.4217869789736202 1.5974710168253072 136 128 125
-0.3422230046871658 0.2760104186197338 1.5928408525270563 140 139 137
-0.3913062202214294 0.2760347485735017 1.5897696020595689 144 140 139
-0.1533672027329784 0.4216133473186352 1.5942631639408888 136 128 125
-0.2178861362671660 0.4224308901903546 1.5918102246969403 133 128 125
-0.2677204611806908 0.4227511455743834 1.5889745111664471 140 132 129
-0.4408724511525207 0.2767275099013836 1.5876348080307856 145 143 144
-0.4768916725875347 0.2774658041647298 1.5894271796069475 144 140 141
-0.3156063042307976 0.4221821886966459 1.5834089381719814 136 132 131
-0.4159873017572565 0.4231998210765299 1.5800840320616629 139 131 128
-0.5398431479768517 0.2769500386021991 1.5834051351510876 121 121 121
-0.4529316956390891 0.4254325240690828 1.5845253594956130 133 128 122
-0.5250684468057413 0.2770148958199579 1.5840838893911324 136 134 135
-0.0974792563156842 0.4367547230462293 1.5944546798909429 138 127 123
-0.0815447030787831 0.4393858269880732 1.6016400294508717 129 118 112
-0.1302952902552186 0.4368189376766278 1.5936893885947636 127 117 115
-0.1825511646678386 0.4388342377179763 1.5957608850240350 133 125 122
-0.0712350373099794 0.2902515766891345 1.6049180299696213 141 137 136
-0.3791941834337136 0.4487119830384757 1.5725651909531211 48 46 51
-0.3513951690343814 0.4491205008351032 1.5724897502418287 42 41 49
0.3723924368453327 0.4395054907263689 1.3602202477338095 201 206 210
-0.0397684417755968 0.4411164942282305 1.3444985588819482 127 135 146
0.5483808879586327 0.4509063529552285 1.3676659436396605 120 116 113
-0.3289125797624690 0.4422588567142652 1.3298889399935150 194 196 195
-0.4459077217980585 0.4424853646865147 1.3218136001465632 204 209 212
-0.3352244679399687 0.4436763043930414 1.3261860698840464 192 188 187
0.7195899180411452 0.4568238061688216 1.3474629397122420 45 29 30
-0.0386092157806298 0.4575681959717689 1.3379039996177069 78 83 89
0.0154345146053190 0.4571298470037849 1.3367232704054828 92 89 82
0.6511914972252729 0.4585637331493641 1.3337740884687173 49 32 25
-0.2215011229881303 0.4698537166686458 1.3261242437096794 49 50 54
-0.4578817504042226 0.4520194073340925 1.3179642913991918 87 89 88
0.7932734371788638 0.4460490706327266 1.3806376945170078 65 64 60
0.5841342835036426 0.4457148461992931 1.3713444873599308 161 163 162
0.6936247252232006 0.4460557981493095 1.3732035654542856 38 34 33
0.2428927032463268 0.4464012680160655 1.3529609590798795 68 73 76
0.1757947728348505 0.4491584918562545 1.3491466071219622 41 41 39
-0.3413521436841313 0.4483480932836289 1.3220813273074463 53 51 54
0.7948739066714490 0.1504901574439727 2.1904236558992727 82 85 94
-0.0500551721957725 0.2103986098654604 1.6237980431375505 150 146 145
-0.4610458788073161 0.1897772995016857 1.5895143087051908 161 160 165
0.0914581629331117 0.4397927542074384 1.3481357238100844 132 133 125
0.7221901716931332 0.4474870788382865 1.3777918934235274 53 52 50
-0.5479887102337772 0.1889684735674559 1.5898651507594213 143 141 144
0.1060539554339242 0.4639934302040600 1.3385292733603333 88 90 87
-0.1571150324095272 0.4428413425508624 1.5886865687472882 138 123 118
-0.3172553432152080 0.4476577012468009 1.5855571855812940 78 68 67
0.2748447168271934 0.4503223428538299 1.3534500166092418 55 51 48
-0.0265199319597646 0.4536076222275289 1.3346177854386945 51 51 53
0.5836121147587604 0.4608018673202590 1.3363008940255745 83 63 56
0.6057241556063196 0.4610792942580634 1.3370519580525608 35 18 10
0.5338864311257439 0.4623126877120213 1.3275528134205916 38 22 22
-0.0666034167319756 0.2851322777781607 1.6051078183720149 114 109 105
0.6738050851558274 0.4616450391008244 1.3191960416853494 53 33 26
0.8015111481986436 0.4702222410642788 1.3488783301527796 159 143 127
0.5307697477822955 0.4664409781805295 1.3256272051671028 47 32 27
0.1531359061000647 0.3717031781164961 2.1272272324289836 72 64 61
0.7218978057739919 0.4665520239953767 1.3318840457342451 133 112 93
-0.4109018900762160 0.4720414846136237 1.3213595584237154 41 39 44
0.5415015724296962 0.4679684554178205 1.3216160010795071 56 31 26
-0.3715842006597114 0.4749151319523909 1.3220513983908411 123 124 128
0.5944048874104172 0.4685868102479067 1.3175403110062391 48 27 24
0.7517822636274358 0.4708968601627243 1.3200568998302167 144 116 94
0.1908315661003670 0.4228013918670174 2.1312597840334382 73 62 58
-0.3288735845119365 0.3334259598677025 1.5918577266448419 61 55 55
-0.0919141450020990 0.3666367989795637 1.6002510530592877 112 105 99
0.9081569803240189 0.3938451302273375 1.6472507572907800 125 121 122
0.3010448931271860 0.4400701959042412 1.6183304383930832 48 44 43
0.4003090427247051 0.4428705316037642 1.6189589742909185 78 73 69
-0.0736145186469553 0.4464094496768934 1.5981570390496620 64 58 58
-0.5546297726265436 0.4405363590687021 1.5636627307114082 96 103 111
-0.3300819876821803 0.4515792419265369 1.5745448145974503 45 49 58
-0.1692769748236473 0.1717468441227221 1.6056590246009963 182 173 164
-0.5946882787186752 0.4540967264458376 1.4674399127615203 48 38 46
-0.2344332939863567 0.1742652372856769 1.6051896274559774 49 47 48
0.8146683893543519 0.4361999240103921 1.3951460660001205 162 167 163
-0.6251883383678256 0.1715437200925701 1.4431337078295521 158 167 176
0.8030327392495575 0.4394272284146677 1.3830143491826736 175 183 186
0.5302374268930251 0.4379373352727832 1.3656068813141247 200 205 208
0.6877103358286754 0.4387963895752410 1.3743539704637362 152 154 153
0.5466927220238293 0.4395919034654525 1.3697370733430136 174 176 171
0.8020952848099325 0.4419205882846081 1.3804669711570492 54 58 67
0.7492525715025502 0.4431071578378173 1.3791748362270673 157 162 166
0.3444453611240909 0.4440224839028358 1.3563070869263121 71 76 82
0.2313905287569489 0.4447604701316536 1.3493874353962716 104 108 109
0.8192901519664459 0.4500014313523901 1.3797847951030016 106 114 117
0.7814748142831813 0.4514233195613989 1.3790231224860496 57 55 56
-0.2511252049030275 0.4439703568108954 1.3312909106267132 67 72 78
0.3856760625180743 0.4516194290194682 1.3591829152414969 139 140 142
0.6512798428637840 0.4493924176669267 1.3596328326521725 129 106 92
-0.4221071706200331 0.4451665123079611 1.3250282282747707 176 184 203
0.0154477404922808 0.4497847108989032 1.3380160352696202 48 49 51
0.4977794049709941 0.4535128923532322 1.3621381425185679 100 104 107
0.5190066161448175 0.4534465101550008 1.3589164333227937 175 148 129
0.7536094666023954 0.4539161687889161 1.3695935115472309 64 45 39
-0.2799607396919505 0.4499986522006233 1.3291359210870457 159 163 166
0.6156054504823887 0.4531191633319346 1.3556512685972124 39 23 10
0.5571326576367081 0.4551118199812547 1.3586290204299301 225 226 228
0.7052107358301493 0.4536672227617957 1.3559092281878486 60 37 29
0.6028845507301086 0.4547767048914740 1.3521724753616491 61 39 28
0.7987837109157682 0.4621914858650255 1.3795272220486847 81 82 77
-0.3009259014774266 0.4548351510923055 1.3271238286676106 133 128 124
0.5079149568897914 0.4574430954121801 1.3485595386721705 65 37 25
0.3757409373932240 0.4617664473289876 1.3559319668104202 114 114 112
0.6044184380020088 0.4571592449059778 1.3440586445936531 34 18 5
0.4710951032821365 0.4633752030711062 1.3534036191331804 74 48 33
0.1201434045713437 0.4647049521055971 1.3449957921642299 88 89 84
-0.5430366685394642 0.1717382346190888 1.5888413213931383 159 159 159
0.6166326132980365 0.4583129892218317 1.3396159055275534 51 31 20
0.3413388014313260 0.4687505559205949 1.3551828503643726 98 100 99
0.4778575896880560 0.4637939705227798 1.3419311729166044 135 112 98
0.5204309496151014 0.4605329407196802 1.3336308743752696 54 34 27
0.7014324888650261 0.4562870077368612 1.3270706530701128 127 102 82
-0.1069838980334483 0.4684486910995297 1.3336301589310240 46 48 45
0.6488880898599962 0.4630249025067647 1.3333966980201175 60 41 37
0.6318408179004618 0.4625681159338800 1.3308645598294297 56 27 13
0.4523929995214839 0.4722717441753885 1.3496890603736331 45 27 23
0.7081580661742423 0.4615806685471879 1.3264621549567355 171 144 117
0.8063600449096603 0.4702432626797934 1.3548607638238486 45 25 18
0.5389755127717503 0.4646229641710878 1.3260879089152580 47 19 15
0.5037042231935919 0.4666281345125329 1.3246803997777379 129 102 81
0.6012445303457867 0.4656843694747216 1.3213028769368500 45 25 18
0.5935864202076373 0.4666607101212528 1.3201784668179612 101 77 67
0.6339758394598031 0.4655077499288604 1.3172607572570216 47 23 19
0.5580776686700325 0.4689692717364213 1.3139103783695567 142 119 105
0.7001832345202645 0.4685443565347559 1.3148228923515988 153 132 111
0.5569264514220532 0.4709187626300641 1.3144473747455732 36 18 14
0.6461809118713900 0.4700031460310055 1.3123920325109135 36 20 20
0.6116815635105556 0.4691891237994537 1.3050822915199387 105 75 67
0.6326802392892171 0.4704405114562005 1.3086030707335365 156 126 92
0.1039134029629018 0.3890055288762190 2.1257789755153240 72 64 61
0.6260044221839612 0.3981553313624013 2.1517586446356445 37 37 45
0.6788078338112808 0.4125370231521729 2.1527226896658296 188 188 196
-0.5375683076409303 0.4418458483226265 2.2866058270548035 124 116 113
0.5146128402930947 0.4189796995131341 2.1434947209240693 71 64 58
-0.4549512339506270 0.2349192670254537 1.5884450865663313 83 81 82
0.8728706668538988 0.3951589946332243 1.7613070234472115 58 53 50
0.8760087008834631 0.3960199046450221 1.7538894731983168 64 59 56
-0.4786337403083668 0.2510590742225743 1.5840548345991023 70 69 67
-0.4350474933994949 0.3672025510997301 1.5851049766229874 56 51 48
-0.2097737880169288 0.2659588314798441 1.5975277919861339 55 55 53
-0.1877167376403356 0.2670801332690451 1.6014916281290610 57 56 61
-0.2879747392390969 0.3995749611266927 1.5909340833179644 46 40 40
0.9021991172307162 0.4278578163417784 1.6457044976434634 105 102 97
-0.4094148559220231 0.4227017356235253 1.5838692450020559 52 46 46
-0.3369218535838088 0.4283053911832757 1.5859291778361166 111 101 91
-0.3580719038349551 0.3001904856375426 1.5900739661248406 55 53 54
0.2972690290734927 0.4037549554930124 2.1306404303374764 51 42 33
0.0753778733951836 0.4212751701406693 2.1215370859233000 71 61 59
0.6375203192293576 0.4403059309462443 1.3713092589007811 122 126 129
0.3524942268936160 0.4402257288540557 1.3578098456422352 151 153 150
0.4151111350066173 0.4397106574260722 1.3584484258890872 177 190 198
0.3908378930853393 0.4425837617495669 1.3600795838353272 83 91 94
-0.1261359510003148 0.4423716678426650 1.3371668344327492 200 202 199
0.0321269152706497 0.4432290472878559 1.3411685430394451 51 55 58
0.8408649725263287 0.4503723978833998 1.3806680859708973 90 91 93
0.6958415867573022 0.4498742877787573 1.3710263289236873 67 52 49
0.6856833642410410 0.4512635794586444 1.3692381390924924 149 115 106
-0.0899450296707479 0.3641459401931680 1.6009384143197638 44 39 35
0.5414407963642430 0.4532096004126171 1.3611414465381610 110 88 74
0.9037514656344445 0.3730210683086811 1.6453596419697651 52 51 49
0.5152388023286640 0.4566643308394642 1.3590616148141461 59 36 28
-0.0757141584319485 0.4549077696465705 1.3360827330495664 102 102 100
0.6398439835562730 0.4537946816236665 1.3536400934182455 112 89 75
-0.0962503046164282 0.4570908454721228 1.3363428179161960 114 119 122
-0.3596802082123693 0.3981219512310268 1.5854160420205174 49 43 43
-0.4382528487144720 0.4029679542369766 1.5802645637674866 134 126 124
-0.3900250833280466 0.4106217061655428 1.5828021851458220 137 129 127
-0.1655946860074070 0.4172621900968930 1.5945117654811292 139 131 128
0.9314722046536976 0.4273179692429306 1.6464345003911058 131 127 124
-0.0051059033720391 0.4439278187172701 1.5987680606760599 76 56 47
0.7172841438037320 0.4392101792410760 1.3778544284922003 141 141 139
0.7480526426855741 0.4473729818827352 1.3809090267453894 48 44 43
-0.3058132310886441 0.4425145640038211 1.3407735597005381 183 185 182
0.6760367613258916 0.4502457602864259 1.3655154998028181 141 115 100
-0.3380400399479370 0.4475540650006967 1.3268714195647779 145 141 138
0.2027714916063847 0.4546868038430554 1.3489313248595867 54 55 57
-0.4003632491395168 0.4478884894132474 1.3225111695853671 53 56 65
0.6296011517066986 0.4555261833289110 1.3534749782335784 35 25 24
0.4430362777996318 0.4716953493818555 1.3539997413807157 52 37 34
-0.0185833278437452 0.4722633690501085 1.3295604491004083 69 51 41
0.7977481349844814 0.4709986343047841 1.3493272853211924 39 20 13
0.6799077454226641 0.4687635983382439 1.3158947523042737 122 98 72
0.9130406688777044 0.4509086040255647 1.6512061236302555 44 44 52
0.4863241166600941 0.4465082364671288 1.3621565773126083 55 51 50
0.3353426072321009 0.4396911881184146 1.3578419707136133 171 177 175
0.5395505810895490 0.4548033655355667 1.3269470101606751 65 43 30
0.2798868268310433 0.4438049228687009 1.3522215786269476 51 51 51
0.7021080145897377 0.4635247062035716 1.3246075764877727 45 30 27
0.5063439543966047 0.4699932667809301 1.3242623138816827 40 19 14
-0.4598267720700447 0.4437172665997738 1.3239959487038531 177 186 191
0.8007706125621412 0.4635620860116970 1.3758837138735180 63 39 35
0.5699954245813066 0.4584176534003562 1.3484362697547305 79 58 53
0.4569758558428761 0.4703440116816650 1.3471117112047883 51 32 28
-0.3149462028474748 0.3241396626919356 1.5875590196846501 141 137 136
0.4798057781491362 0.4729100779667768 1.3173647482501649 176 155 150
-0.3028785092861905 0.3251191534742002 1.5951285599893357 125 117 114
-0.0816123365886701 0.3398011532310654 1.6035764542182602 125 118 112
-0.5510796962176903 0.1805964007301243 1.5873490414454976 140 138 141
-0.0561873808547063 0.3561117964892916 1.6034230803892069 137 132 128
0.9448188832744537 0.3654383443030508 1.6485920184023983 158 157 155
0.8882266556416174 0.3671426664634792 1.6524543038485331 130 126 125
0.9069504573017980 0.4399003290357107 1.6466451991556019 64 60 57
0.9217251476132015 0.4397444812075723 1.6418745506753265 43 43 43
-0.5015705041698503 0.3588864702195451 1.5831453146223466 139 135 132
-0.5524845829879613 0.3599279673796886 1.5830366016710440 117 107 106
0.7420427850541851 0.1594643577276090 1.0750736403850949 149 145 146
0.8471927801225975 0.4174083414707452 2.1743931997472590 53 53 61
-0.1397685067532201 0.4309581542541265 1.5968292392041721 55 47 44
0.9222251215025903 0.3824349213368117 1.6484880499320882 137 133 132
0.7043889584798878 0.4457690046369968 1.3754536005399789 62 61 59
0.7462619288758393 0.4468408758241453 1.3798642323764168 68 64 61
-0.0557595957281214 0.3879321010003593 1.6009614707614273 134 129 126
-0.3035345800254680 0.3905839430470358 1.5898966183072440 139 133 133
-0.3018663656828282 0.2592811664595222 1.5996636660607300 118 110 99
-0.4284096312555352 0.4077397205835346 1.5846370937089946 137 129 126
-0.5410453012625571 0.4084953666369942 1.5772912472531142 122 116 116
-0.0568162995605262 0.2907551145986743 1.6072031313715376 141 137 134
0.9129852605424964 0.3014068469414333 1.6552625863681971 146 145 143
-0.5377623612014489 0.4559352872889941 1.4728644257496386 119 118 126
-0.4956906990164699 0.4407339696284382 1.5768556632317137 88 78 69
0.8156556371768863 0.4381853096618668 1.3919819559720297 123 127 130
0.7922281471725405 0.4657086540708539 1.3614793412221931 36 18 14
0.6738500673035308 0.4604754376638885 1.3330131140972610 118 91 64
0.5268925937440010 0.4621982345641096 1.3304749931044404 36 23 17
0.6383765880406723 0.4665168382344590 1.3134412114348788 49 34 29
-0.5470922424003200 0.1614435451827286 1.5921446761138514 183 183 181
-0.3921317074377843 0.1872405619148085 1.5929435325678272 140 133 125
-0.2688855597914035 0.4480306386315367 1.5938981365213303 128 117 113
0.0746226455971553 0.4515747406671185 1.3439612731736732 47 47 49
0.6288253383111154 0.4524609518753339 1.3543981959078915 75 60 57
-0.0284925652190452 -0.0087593297874890 1.6574108667730667 61 53 50
-0.4202852899625424 -0.6464443517881888 1.6422379209761355 207 210 215
0.3999334046090777 -0.2770329580543547 1.6567320908811674 198 197 193
0.3940231918569920 -0.2758702396899657 1.6558783575539646 188 187 183
0.4115703052126424 -0.2739338467888386 1.6569739384988962 78 74 71
0.4604743900619059 0.4210733518078848 2.1412301318296914 58 49 44
0.0730590414318456 0.4210108558633791 2.1161760789775186 68 59 54
-0.2120289241219369 0.3339808775297934 1.5955362761139400 150 141 142
-0.3106378027477571 0.3533684882117337 1.5911729716886902 62 56 56
-0.1126066022414907 0.3845763797758639 1.5985928290068947 66 61 58
0.7343803743649533 -0.4489211783047075 1.6849091457970757 202 203 197
-0.1588265204123873 0.4163779099385272 1.5964166287640924 122 114 111
-0.0814017995141036 -0.0254195391025079 1.6247546220078275 209 208 203
-0.0881224998958495 -0.0182010914746224 1.6245535843675527 232 231 226
-0.1350406178101196 -0.0178218214834659 1.6255375963408853 233 232 227
-0.5260564329562112 0.4371585494080197 1.5785616577301087 95 90 87
-0.1299706210334064 0.1710287859928514 1.6102409885053628 202 199 192
-0.2013966230209334 0.1712753318950954 1.6059790488007124 195 192 183
0.4108625609895586 0.4433768746849609 1.6204360020970625 67 59 56
0.6017384288199722 0.4419433661048430 1.6255088633599872 70 50 43
0.6291278909535201 0.4418997662354570 1.6282756577965933 60 50 48
-0.3284120630062467 0.4499384015893265 1.5764540518872718 228 235 245
-0.0485402368144669 0.2080228347792905 1.7370867054175472 69 65 64
0.5379952393299771 0.2730407317170874 2.1489185990884527 77 72 68
-0.5571252791089141 0.4535428174506279 1.4828864471505534 35 33 38
-0.0462414135866745 0.2234706024450137 1.7282544588274473 62 57 53
-0.5326605024066776 0.4584171013300278 1.4757097210938304 63 52 58
0.2960814650530166 0.4391128237683266 1.3801092036135709 244 249 253
-0.0609552009410607 0.4389515775289941 1.3471691699200152 165 170 174
0.3020068950760474 0.4392675428424982 1.3795181248157813 236 249 255
-0.0641485197664959 0.4392620127279749 1.3459566730455774 181 188 194
-0.2612390160038254 0.2183366037621987 1.6011206017706689 56 55 53
-0.0605821851303033 0.2210739768516339 1.6109044970394015 150 146 145
0.2095073985667672 0.4390486859370328 1.3520106828528891 183 194 198
-0.1576131527206676 0.4427802939413694 1.3332519472500257 163 172 179
0.2338794120969252 -0.1922249376940595 1.6462618716664446 89 85 82
0.2995742815875336 0.3060783462381805 2.1365139983343480 71 66 63
0.3677672034789861 0.4391192734580889 1.3601732007830791 190 198 201
0.1540039073634435 0.3066297639504157 2.1280759656168975 75 67 65
0.1306533128394138 0.3075193416880995 2.1293360897167815 78 70 67
0.3302629027411769 0.4414070015014522 1.3578244510293418 129 120 113
-0.3092020990349075 0.2336086051947245 1.5956125611717529 64 62 63
0.1786827668686966 -0.1508775528848257 1.6413836608940544 203 204 198
0.1569089148240842 -0.1459431737672512 1.6390073934539240 223 220 215
0.3645084622937306 0.4419961482791953 1.3584826071516176 86 89 94
-0.0982223035663900 0.2465821523427425 1.6062159425328881 153 149 148
0.4029896881613606 0.4425887446283696 1.3601286604907723 56 61 67
0.3759883103170594 0.4437722372620576 1.3582625471521943 140 140 142
-0.0664516886395067 0.2529813829339603 1.6073725017278329 146 142 141
0.2294482996649872 -0.1945338997733765 1.6454837201290549 207 206 201
-0.5536445343250364 0.2558143441885934 1.5850895450912585 125 125 123
0.0369087500114451 0.4510223652220153 1.3411712540211422 95 99 102
-0.4698636790026003 0.2688676303058860 1.5903752816061902 56 54 55
0.0724447517209904 -0.0652537138264780 1.6315973838457456 209 206 199
0.0786684227747935 -0.0628728289429058 1.6319686888410896 69 66 59
-0.0154386813468434 0.3555369108820201 2.1190817586332180 61 56 53
0.2087585909511185 0.4522053233725296 1.3490845020272428 168 178 180
0.3460382222972249 0.3715055264698195 2.1369968292665087 73 65 62
0.2276773295667600 0.3723670369054904 2.1311042978228500 77 70 64
-0.2849667197624129 0.2831671293555160 1.5944280529977293 74 73 71
-0.0422719938008072 -0.0179394537758795 1.6238973281646258 226 227 222
-0.0621952049612584 0.2008291698144765 2.1203727364902432 39 33 33
-0.1384087295372814 0.1709956798693985 1.6069126392157287 222 221 216
-0.1528642050105283 0.1717371173720706 1.6086244992683341 210 209 204
0.6514577416138887 0.2377479930149007 2.1596058393720523 59 62 71
0.2488066418929733 0.3887939829214037 2.1324647498894631 76 66 64
-0.1279211470313621 0.4684817126361274 1.3319755842525465 121 122 124
0.2728204119867215 0.2427185267068109 2.1394592854679986 60 52 49
0.2014420420932280 0.3897026177323068 2.1307326385558607 70 62 59
0.1104105517847369 0.4675463364121141 1.3434705358986643 49 50 52
0.1627569548940805 0.4680361471773896 1.3452015064444043 52 53 48
-0.4585021867965867 0.3009862257601854 1.5875863495565081 76 70 70
-0.4340409866582177 0.3017561783623157 1.5882763840215690 50 48 49
-0.0404217495484207 0.4721938891424990 1.3300393668825854 145 141 140
-0.2352491527157070 0.2048642889842075 1.6074120132596077 146 144 145
-0.2952293331105594 0.1707884125863327 1.6013912887169555 199 200 195
0.2987203897110645 0.2266810028468574 2.1404153072738237 93 89 88
-0.1002865556858788 0.4749783127616826 1.3255481599120813 182 180 183
-0.0999707834264177 0.4748417423503797 1.3250425147888027 182 180 183
-0.1385833061187631 0.3142604118751011 1.6010413283264231 58 54 51
-0.0941442717437128 0.2174756426386025 1.6073785050556180 51 50 48
0.5886068170298132 0.2909378174008591 2.1557342277353015 77 72 69
0.2684294270683528 0.2902425503030268 2.1368579176678644 70 62 60
0.1123705291988499 0.2910118260097092 2.1295563723651241 61 53 50
-0.2110927020079740 0.3310834325092124 1.5961798062966286 59 55 54
-0.3862666448110192 0.3344267667732645 1.5895875311945249 56 51 55
-0.1876137671248615 0.2341546538150773 1.6029574847376100 63 61 62
-0.1150337242046032 0.3497298517836769 1.5958713728492522 144 139 136
-0.2369724577797097 0.2343061697922362 1.6011522564322553 70 66 67
-0.5323718098852188 0.2369319424653975 1.5874450430290257 63 59 60
0.1267804474020986 0.3073058339362934 2.1302887832043793 70 62 59
-0.0637167602663167 0.2505062272442369 1.6089708716105535 58 54 53
-0.1383046292121756 0.2373369415410027 1.6049225159394456 52 51 49
0.4595337260076755 0.3230680801270202 2.1468033257060437 69 64 61
0.3897481777987020 0.3389409358161488 2.1395245403144045 77 74 69
-0.1611205024578068 0.3964929790806758 1.5950394965493468 62 57 54
-0.5068977011510956 0.2680211727791701 1.5862170510563720 59 57 60
-0.4843046062357437 0.2695063272379851 1.5895317848849975 51 49 50
-0.0635054701638848 0.2827149150292675 1.6062862034426995 66 60 60
-0.3344040075434292 0.2836004301037409 1.5926038156184945 67 63 62
0.2207305891377123 0.3558244919280000 2.1312732685809346 72 64 61
-0.0421429166548015 0.2795083122894796 1.6065518579035885 147 142 138
-0.0613382040725042 0.2851452871824982 1.6073099936043853 145 141 142
0.6258043894996901 0.3902649800877051 2.1518870079893038 34 34 42
-0.1624689435756521 0.3158256231553018 1.6004855885331537 66 62 59
-0.0427680167727952 0.3188050430156648 1.6048962576953834 147 143 140
0.1738316050637806 0.4211119029256350 2.1225780549530548 67 59 57
0.4215625278424907 0.4043898557257896 2.1376142628822463 71 64 58
0.1737925832770774 0.4211707610542262 2.1226877378422966 67 59 57
0.0524999183094287 0.4374478503554339 1.3565501668603961 93 89 86
-0.0637408186220410 0.3304234795470394 1.6037197229910165 59 55 52
0.2031572428974998 0.4379328602094712 1.3603266710987760 151 162 166
-0.3592247573508549 0.3330422507390726 1.5896075790112021 63 59 60
-0.1883485145914646 0.3469762406866206 1.5963358921623942 81 77 74
-0.1133257817971488 0.3479128431247270 1.6005902751674774 71 67 64
-0.2612812416286693 0.3488728033319141 1.5939473054335256 58 54 53
-0.0195353064689937 0.4441836753637024 1.3376230130442082 59 63 66
0.1531303997238170 0.4429249631289957 1.3468261193052220 114 115 110
-0.1108718347749802 0.4495228560141961 1.3347259930649118 79 86 94
0.0568517860778722 0.4481954498135727 1.3418404377824311 140 144 147
-0.5560102523588366 0.3800608645953918 1.5802314236780588 133 129 128
-0.3582632597944049 0.4544030100860896 1.4690131290290454 219 236 254
-0.3456095551500173 0.4437899659873419 1.3359315420083580 99 89 90
-0.5648558132285539 0.4568748823508048 1.4775629522559801 41 36 43
-0.1971473523563480 0.4386944569874133 1.3426345499664880 86 67 69
-0.0229548036887625 0.4418320297337408 1.3463425521837384 160 165 169
-0.1410479840704278 0.4480316930208721 1.3349127653006247 58 62 65
0.1617193611592955 0.4416508648876126 1.3516175671912198 183 184 178
-0.3369702780107112 0.4589427251873505 1.3265790681569456 111 108 101
0.0126467688510117 0.4699965120488042 1.3343312610822722 56 54 55
-0.2174568635747243 0.3237672194384256 1.5950484493391652 145 144 142
0.6097838607971726 0.0877002111453792 2.1644256978208540 54 52 57
0.6183413742777064 0.1129711074127000 2.1578448664458247 116 122 138
0.5603645202698957 -0.4054277543813403 1.6704782108100056 205 204 199
-0.0632900719403784 0.2327454434481141 1.6079416634911898 78 77 75
-0.1387088571470013 0.2994938787420001 1.6021416044324992 87 86 82
-0.0634731434650375 0.3630668823559676 1.6017007630613047 56 51 48
0.1438252833135676 -0.1047115621711488 1.6362050647434254 83 76 70
0.6180534370003101 0.1032618062687741 2.1577158646223280 113 120 136
-0.0430702644510130 0.3923173199972653 1.7073784318215970 107 98 91
-0.0700269308297612 0.3876137432948687 1.5990906063950237 143 135 133
