ply
format ascii 1.0
element vertex 702
property double x
property double y
property double z
property uchar red
property uchar green
property uchar blue
end_header
0.7862015641167092 0.4774683773927798 1.3487342666598565 171 145 128
0.3251075747731817 0.4279903136101439 2.1600173106250340 60 52 50
0.6737127868316293 0.4746911742967442 1.3323098678628822 128 98 87
0.5352709746299399 0.4784638371069938 1.3399321008715728 64 44 35
0.6647434913498997 0.4747643342509177 1.3303696154691116 111 83 71
0.5871965334746443 0.4777025196394669 1.3342456212760594 109 90 84
0.0218537222990883 0.4820760509298515 1.3416676166224744 150 132 120
0.7171214948116634 0.4767396362594978 1.3306276550989229 53 30 16
0.8061965968311926 0.4811928633273484 1.3413818175237784 159 132 123
0.5349442906896283 0.4798841128921462 1.3351329531454519 125 99 72
0.6205300272609923 0.4768287369176545 1.3284377146974091 97 70 59
0.6318589350071111 0.1173043997924190 2.2181732777201204 118 124 140
-0.1150993587129277 0.3368793163787225 1.6252102896045577 42 34 23
0.6515437834567339 0.1977854357648318 2.1915294626177264 60 64 76
-0.1652530248788262 0.3372104382238166 1.6234563834094400 62 56 56
0.6886963238959309 0.4784199133789925 1.3250126712869812 67 48 34
-0.1418858069079435 0.3381333467426388 1.6248829448317286 60 56 55
-0.3980618122802431 0.4788860186075636 1.3288375445632719 52 32 33
-0.1919404074935951 0.3384123941648782 1.6226580315177599 76 70 70
-0.3928262862198790 0.4820429209032233 1.3354636021067194 114 89 92
0.9412505135812197 0.1691616408838827 1.7058378996408263 200 201 196
-0.0880935558489631 0.3408532035637487 1.6281275476068515 143 139 136
0.5225280039564595 0.4815681639378988 1.3123160509296339 60 34 19
-0.3341004894878072 0.4837337960990328 1.3144320152826345 153 151 136
0.6723384789875479 0.2226168255193377 2.2128859797106579 109 111 123
-0.3479377052467271 0.4832055610074746 1.3075983794810986 140 137 130
-0.1418807523766224 0.3535845200448416 1.6236918496406594 66 59 53
-0.1654204803822139 0.3547301737661834 1.6229683065314517 70 65 62
-0.2412418874780761 0.3540704224553090 1.6178839340659659 66 60 60
0.9281712114986073 0.2028049308893722 1.7084054267596356 85 83 84
-0.2158406145244449 0.3555046484732999 1.6209647540559751 72 68 65
-0.3349394056972825 0.3590962195032105 1.6130044100020233 146 142 141
-0.0930107876443142 0.3720995964851635 1.6303059836998708 52 48 47
0.4729209335549126 0.2618759929002831 2.1842873816851811 60 52 49
-0.1162778121600381 0.2231364178333979 1.6347852003900993 74 70 67
-0.3394258752034628 0.2219691980606681 1.6214355599335446 76 74 75
0.1595333183890953 0.3467770638849348 2.1623960125051491 75 67 64
-0.2136986305087759 0.4040450716176229 1.6163197921622703 50 45 42
-0.4907723656790666 0.2279495428663565 1.6151470097363905 141 139 140
0.8952622075978719 0.4202931261875493 1.6686775659740554 46 46 44
0.8958714154742509 0.4265817989632667 1.6696245153887286 39 38 36
-0.1438306021476840 0.2402731134842296 1.6388089738635379 62 61 59
0.3069637559657379 0.4472079133121206 1.6389783506154683 48 44 43
-0.1911503888231023 0.2543603168748914 1.6262784853828027 61 59 60
-0.2408924365566343 0.2549462039414436 1.6251681051921931 54 52 53
-0.2148480835526754 0.2555148936835467 1.6263727414351661 51 50 48
-0.2647323327011862 0.2564046374188105 1.6262777226438263 47 45 46
-0.3417552458628823 0.2557647774796230 1.6225489853132953 62 60 63
-0.3908377079441708 0.2560495399807240 1.6184902233455438 53 51 52
-0.0964162287497405 0.3084336914630138 1.6380568554938426 137 133 130
0.0039255217694849 0.4478735195344500 1.6229934569342335 178 155 141
0.2483764022796942 0.4519806977618481 1.6314977690427255 83 53 55
-0.5415807062400942 0.2570962004246413 1.6112676806167330 60 58 61
0.0036739434174954 0.4519120924661368 1.6229052898409386 67 48 33
-0.0943674833883324 0.4513817218615537 1.6204405564877820 136 125 119
0.9006302317905753 0.2858298942776032 1.7180181656785747 62 58 57
0.3015315162155481 0.3459996840386317 2.1684352683528316 83 75 72
-0.1208468058155053 0.4545976265839702 1.6174978220463654 63 58 64
-0.7162748552843039 0.4532030150567805 1.6257669835951150 62 51 49
0.9480258835410958 0.2838842233576153 1.6882110682753102 68 66 67
-0.1651931702074124 0.2711325774050955 1.6254355097881885 56 55 53
-0.3948765732699271 0.4545651689973451 1.5959444909921512 62 56 56
-0.3107015394775919 0.4584574365545094 1.6026706859115269 218 228 240
-0.6500635590219462 0.4437248113596354 1.5446114790278378 37 36 42
-0.1919796018208015 0.2726305668279442 1.6279818905591699 57 56 61
-0.2635080098545034 0.2720027173651926 1.6208622584551002 52 50 51
-0.1893282490960395 0.4601265583575241 1.5523714974185976 151 122 92
-0.4144099655084783 0.2727008117238942 1.6144098580320965 46 39 29
0.6465805524330516 0.4463601837791936 1.4055091168903386 136 140 139
-0.5416883932343737 0.2749551847962838 1.6095486054932844 58 56 57
0.6447324128980290 0.4504020240097877 1.3940295771809930 136 144 147
-0.2654111481493134 0.2903491720378002 1.6240597434606763 56 52 51
0.4172877173509316 0.4492818376465642 1.3833505744280887 169 178 187
0.8919552002089096 0.3182147603872305 1.7412525284438187 58 53 50
0.3583683779165787 0.4484252008671425 1.3782471917056278 171 175 178
-0.3651135956521059 0.2906455822933107 1.6173121942683129 55 51 52
0.2896209222856117 0.4487421026303252 1.3773479479378163 154 156 155
0.7942275183128098 0.4544867981624819 1.3990908387427994 73 77 78
0.8437495340870492 0.4543046108535975 1.3992643726818741 59 64 68
0.3067703453346051 0.4499514526748220 1.3744249937724351 69 71 68
0.3656272350864218 0.4522300707913344 1.3779053744954863 110 115 121
0.7911488402082572 0.4562994965022513 1.3979479297088906 114 116 113
0.2465995970695847 0.4509760952785524 1.3725996809537995 47 51 52
0.2634817802195575 0.4506738895888145 1.3720656664683057 46 47 41
-0.5164576332196792 0.2915883601945831 1.6108766820990876 44 38 38
0.9203030498986728 0.3143575434195324 1.6787199637931900 73 71 72
0.0714135665034108 0.4500820744672583 1.3638002436240366 175 179 180
0.1481156614187354 0.4520540454261895 1.3667503082880663 52 48 37
0.3570336032430511 0.4547534581169010 1.3761129121168825 52 56 59
0.1026755869873094 0.4544341279394000 1.3634682714767474 63 66 73
0.5837687754136766 0.4604710697656422 1.3861366722938395 120 120 120
0.2113113623499171 0.4571555736798459 1.3688235641044073 93 100 108
0.6365453029357329 0.4052256037558724 2.1839703771793308 28 27 23
-0.3295829109092577 0.4483787807849611 1.3519437197803672 193 194 196
-0.1739151864881734 0.4504851553315333 1.3526387923045797 165 172 178
0.6304001265728564 0.4620900782785744 1.3866044078184139 142 126 110
0.7280218246931299 0.4619714327240132 1.3849433598588683 74 45 29
0.3546439278775116 0.4622238428216299 1.3783674251018005 56 57 59
0.5990369340225803 0.4106318029596076 2.1780464911450750 77 69 66
0.5837546379926969 0.4622662909069369 1.3812665183784387 86 53 44
0.0045325335231295 0.4566560471797069 1.3584265747458308 78 79 83
0.3967332059231365 0.4634641332904570 1.3791994036300734 96 100 103
-0.2234122090056445 0.4524948733465290 1.3500820373646285 126 135 142
0.4231781117189733 0.4143092255511793 2.1739816947458914 77 67 65
-0.5422915236660635 0.3086172369738373 1.6077208676669095 60 58 59
-0.1161320961098649 0.4558743442618011 1.3547252497492384 119 121 120
0.2055124057711059 0.4110907982308504 2.1593457131356915 73 68 64
0.5280290449901611 0.4645322465027021 1.3772408300636372 83 55 41
0.2744448276756175 0.4136674698311733 2.1657324311230788 71 61 59
0.1263298054313261 0.4138266906794079 2.1590676874732009 46 41 35
-0.2807270431006189 0.4545060103641642 1.3476935092974558 72 72 80
0.3422374224367591 0.4662251553966775 1.3756856428771791 107 107 107
-0.4865427629375438 0.4508416682062553 1.3389761093943684 172 185 191
0.5017186452712316 0.4667685833735931 1.3777342659146530 152 130 117
0.0763208902699218 0.4138391058102887 2.1552508034087929 76 71 67
-0.3754698452088776 0.4528405960853542 1.3393107258443395 65 69 78
-0.5045488572786511 0.4543318947950379 1.3418247145007800 86 82 79
-0.2652775266810715 0.3233148277378860 1.6211344073494949 46 42 41
0.6359623805435215 0.4652313370215809 1.3700223953517139 181 148 139
-0.3896511615261752 0.3230650277618949 1.6112442263499913 55 51 50
0.2751797122818050 0.4284455319760117 2.1609380634799797 47 40 34
0.2255779263868845 0.4293133627139167 2.1592343818650503 72 66 66
0.7448670133645957 0.4658334022218050 1.3679930716472366 51 28 20
0.1271431075525500 0.4283666991926121 2.1529906752295149 55 47 44
0.4802337790350596 0.4695076368496471 1.3759774112714800 118 98 74
-0.4351411194723776 0.4561946088695287 1.3389415786462810 87 90 105
0.5660018841693221 0.4662381716483084 1.3621836254252393 43 22 17
-0.3840789020248787 0.4569678557642144 1.3382250065338213 121 124 129
0.3765926041857303 0.4731573770019925 1.3761094127236246 52 52 52
-0.3043105175884881 0.4624729772976789 1.3454676137581012 172 168 165
0.5081205647535392 0.4709501175701158 1.3632632888718439 108 81 64
-0.3136791851590479 0.3384238259237962 1.6152820831091319 67 57 55
-0.3418655796057742 0.3402316348114070 1.6151399429428481 62 56 56
-0.5657943311033070 0.4607886940064393 1.3335496917529179 98 97 95
0.5052070899393429 0.4725669991574725 1.3605499139165320 41 23 21
-0.5140884448548352 0.3391616004338935 1.6039760320838534 60 59 57
-0.3015896220458146 0.4673470042143889 1.3425561354253837 127 123 120
-0.0907271833843746 0.3531665394923941 1.6249837528582121 65 61 58
0.5223519568142430 0.4728404091457259 1.3523227973219225 43 24 17
-0.1127593839862558 0.4734938375493983 1.3527185876901417 99 99 97
0.6323906053262649 0.4746166737377461 1.3546460667351305 158 131 112
-0.2905607784770675 0.3548214865563841 1.6146999448038928 51 45 45
0.7762513091877496 0.4747761178968076 1.3516790513018060 57 33 23
-0.3902336007743348 0.3559679351683345 1.6095832542207176 53 51 54
-0.4403264321780518 0.3561331491504793 1.6079272944697707 59 54 51
0.1824592607956277 0.4819126850257094 1.3606691578302261 169 151 131
0.8994086121214614 0.3848709452075570 1.7037010225548170 62 58 55
0.5207477820716265 0.4765255397619115 1.3440004108052928 114 93 76
-0.1146530336181820 0.3697599725976543 1.6229824850535997 61 57 56
-0.4160992084308702 0.4772520547781232 1.3393134067693515 100 101 106
-0.1641419808158467 0.3698848646657889 1.6204804736980039 70 65 62
-0.1002287213292274 0.4825987895233593 1.3478084380874074 54 53 58
0.8188985887798261 0.4803460430048930 1.3445125066498891 74 47 38
0.4917923107167234 0.4803941796936383 1.3397149268469297 69 48 45
0.6379655392117723 0.4764225867441249 1.3319644130401116 42 22 15
-0.2141875542929744 0.3703423762872062 1.6183931750994798 55 45 35
0.5900626835849396 0.4781051844001962 1.3322509097207673 40 22 20
-0.3149063967044575 0.3718769802286119 1.6120653755244712 55 51 50
-0.2905729796672242 0.3732887288283011 1.6158118430130872 73 68 65
0.5480577747578471 0.4801224981479296 1.3341231977757395 60 39 34
-0.4702425778159018 0.4788477740864899 1.3342579558042358 107 107 107
-0.2951155420021132 0.3766709933823997 1.6154603201127622 139 133 133
-0.5136256179363822 0.3724014027431999 1.5999426760434474 50 46 45
0.6800421353446138 0.4783484455578344 1.3234495662485872 138 117 96
-0.0900221613323698 0.3867132978631652 1.6231567187083249 45 36 29
0.6800162125380873 0.4776300139521249 1.3140650431913363 60 42 32
0.1970944901503649 0.4822338425824382 1.3184298920141655 33 21 25
-0.1893023293230852 0.3873159611821453 1.6192988009489597 41 36 32
-0.3407373391198203 0.4841786564074505 1.3142141701113510 147 144 135
-0.2389945491209264 0.3876118891276363 1.6163892702277014 52 47 44
-0.2138717840918455 0.3882780861844050 1.6184871026153953 55 51 52
-0.1680270449721657 0.3913533577533089 1.6187677475823776 133 127 127
-0.3397479264576926 0.3889132885860773 1.6108165405236341 53 47 47
-0.2607676268085320 0.3930116734918639 1.6166056312017512 133 128 125
-0.0638816200395081 0.4032294600568340 1.6249625828423631 64 59 56
-0.4692646506342383 0.3937376435345943 1.6032431115838899 133 128 124
-0.1913513577436204 0.4057986010989695 1.6193505012059457 61 55 55
-0.4633301055464695 0.4052245639714061 1.6002612290439127 56 51 48
-0.3446253958740287 0.4096005722386271 1.6080456797985250 130 125 122
-0.3954003846996594 0.4100920287355961 1.6060888058665006 107 97 87
-0.0892253078272855 0.4197697241636778 1.6221390653268106 46 38 35
-0.0644939637848554 0.4212348471625599 1.6249805434026372 54 46 43
-0.1404064931925509 0.4199622705106535 1.6205710558822424 60 53 47
-0.3409829882075197 0.4222586263210505 1.6089019687486683 51 47 48
-0.4900525111499056 0.4225061327150678 1.5999866790550350 53 49 48
0.6277988357176535 0.4491049293376427 1.6491559916375174 62 51 49
-0.3429383760476565 0.4404537977465924 1.6101495312797991 55 47 45
-0.4457356475404359 0.4438136223791984 1.6035003414731666 113 104 99
-0.4938435417061498 0.4439854882153871 1.5981851194424499 101 94 88
-0.5251143214050245 0.4451342711511398 1.5888743797689611 42 40 45
0.8423860437342010 0.4445696840327601 1.4167243222471140 168 173 167
0.8337674872101539 0.4501474478461384 1.4029173357670859 56 61 67
0.8236001225008414 0.4501699603875924 1.4010065090440087 71 76 82
0.7269390539447173 0.4502969057837800 1.3969394338359171 59 59 59
0.4017022321980637 0.4485801323030829 1.3836499279718510 195 206 212
0.0761619071095409 0.4495912888917317 1.3816859061509188 60 56 55
0.4704594438983297 0.4521840107542581 1.3843652499916721 54 55 59
0.8402535225228335 0.4563927885269793 1.3976894521539571 106 114 117
0.2189346239180303 0.4511748445673127 1.3703027972274824 61 68 74
0.1360404340672681 0.4518822201455590 1.3668667852365946 54 51 42
-0.2422950324789750 0.4516986763559017 1.3719665730433366 91 72 76
0.7468902553220886 0.4588246849964421 1.3932472274084657 56 45 43
0.4997512065811590 0.4579130323320396 1.3843827254799583 104 108 111
-0.3539982572526026 0.4499548593179558 1.3548924276017298 178 182 185
0.8274408213146600 0.4662845703311873 1.4007119338257383 59 63 66
0.5683997949693684 0.4600253853199017 1.3768394615110020 74 51 43
-0.0016670479739629 0.4570864058399116 1.3585692009293475 45 46 48
0.5050287967134635 0.4660353058961103 1.3836841007271266 56 38 36
0.8012612674620515 0.4701781183606711 1.3970371318473302 60 59 55
0.4823202397399827 0.4674864613337055 1.3829369160191629 53 51 54
0.3787666011726312 0.4663684225967292 1.3772347122163457 66 67 71
0.5721374097410360 0.4631726543213580 1.3681618023840845 127 78 71
-0.1962199159890684 0.4569372103831268 1.3504182613684015 155 162 168
-0.0035026099873388 0.4613345725800362 1.3570932238516724 123 123 121
-0.0685367793419128 0.4610340238502273 1.3563308822426587 51 55 58
-0.3895003518004580 0.4549613505147123 1.3414439461215708 74 77 84
0.1692102756063289 0.4671368272737549 1.3667226155593675 50 49 47
0.7974458869097736 0.4711218464023773 1.3856584216748191 167 142 112
0.7204740969010606 0.4667989746217698 1.3556692296211221 71 43 29
0.0982726973536533 0.4710084988698408 1.3603072319121103 124 128 127
0.6761802722726304 0.4661884899605875 1.3452476125293622 49 30 23
-0.3209989966465129 0.4656607395176854 1.3447262620228189 105 98 88
0.6911168066147401 0.4699092657700507 1.3445853745955485 41 26 23
0.5819012028761689 0.4744326580538686 1.3374325974091792 42 24 24
-0.1169123127062155 0.4816002373956320 1.3523859307354600 151 155 154
-0.0513413665067285 0.4832301542258022 1.3542575559787111 60 58 61
0.7541515708300885 0.4771809160388693 1.3391095946214255 171 153 133
0.8451401100250306 0.4813652677504469 1.3504597660627864 132 104 90
-0.1382247258425927 0.4822386026175421 1.3493703536713488 101 98 83
0.6910180971258187 0.4770828330964217 1.3345711614128997 122 98 72
-0.3086862754853772 0.4828329483312228 1.3397755177688948 59 60 65
-0.5150794573234075 0.4401399977981997 1.5999582410527906 48 43 40
-0.1588022535665779 0.2975198204658225 1.6320371467312593 140 136 133
0.8456524968438580 0.4478864322294100 1.4047313524388343 74 81 87
-0.2077319174395814 0.2978633388961642 1.6267792623525372 139 135 134
0.5292965177104572 0.4459942300742314 1.3881145216235802 146 148 147
-0.2574625890046014 0.2981096659168802 1.6234540450342485 137 133 132
-0.3072978641680291 0.2978822688780436 1.6182665681600259 146 142 141
0.2506099192906550 0.4469898046171299 1.3729508091401321 139 143 144
-0.3573336926541744 0.2981268813321903 1.6163491518679229 150 146 145
0.6773514390967111 0.4460845367261203 1.3965990093394760 178 183 186
0.1195474098113128 0.4469338482826118 1.3718034588250603 149 154 157
-0.3233005004191650 0.2984078659570710 1.6185739907360890 152 148 147
-0.3728468256267073 0.2985838052845997 1.6157235204364078 145 141 142
0.8101467032300504 0.4516370931403920 1.4041928316250227 66 67 69
0.6790999765228526 0.4500164710483320 1.3940039656433034 62 67 71
0.4051996851901730 0.4532020090774918 1.3808335547445341 65 70 74
-0.4221299609878502 0.2985152664600005 1.6119767180460485 143 141 142
0.4424898823874870 0.4525333799749481 1.3833403526207477 55 55 55
0.0363836542786060 0.4481772144507131 1.3668117616983291 86 91 95
-0.4717466616615079 0.2985016006861382 1.6089987452648069 144 138 138
-0.4564958620522855 0.2989434266862473 1.6099420902624917 142 140 141
0.2255015863612222 0.4516637401515947 1.3710751352296189 62 60 61
0.6289630174687094 0.4570758853722932 1.3893385920092209 52 55 60
-0.2500684736607069 0.4497276460807560 1.3559252431927751 179 183 186
-0.5074747698976040 0.2991703022874210 1.6091975220840449 141 137 138
-0.2003565659054712 0.4503764761899655 1.3574928805896151 195 202 208
0.3166944953002542 0.4599683001890467 1.3766213254848831 53 53 53
0.5610336905261148 0.4615174728073462 1.3785266043578952 67 51 38
-0.1624437083952055 0.4536213691170876 1.3503625807124242 50 57 65
-0.2650774358161047 0.4540824444356368 1.3467638234894415 58 61 70
0.7129247152322166 0.4626273840930071 1.3731676413316596 91 68 50
0.7589857924464756 0.4639872165562306 1.3754505577763296 137 110 93
-0.0994738990574506 0.4600154986182973 1.3543580147775256 54 62 65
0.7245984420700357 0.4657819399022743 1.3717103045761709 144 118 95
-0.0986289588252746 0.3131687533709935 1.6301079126265674 143 138 135
-0.0833513610599584 0.3130152600103688 1.6302981761438251 147 143 142
0.5360018307181069 0.4664498431447506 1.3650910845377944 168 139 121
0.4912196204943559 0.4707074861599623 1.3681395388293531 64 44 35
-0.1496019865771612 0.3137246666066601 1.6291169766153155 139 138 136
0.1257728945127213 0.4719816908441823 1.3655663707010852 49 49 49
-0.3541514721341242 0.4708491247628123 1.3425287630008784 111 115 118
0.0831996062410864 0.4721651703436626 1.3619697153810264 110 112 111
-0.1343004318455037 0.3129018693679684 1.6284065572832971 140 134 134
0.8212873309580991 0.4778201857158297 1.3609985367651640 63 35 21
-0.1337783364914384 0.3125790466569939 1.6274522875070387 128 121 115
-0.1844639072885737 0.3135282253646278 1.6264354089403843 141 137 136
-0.3379539210071886 0.4769125338012918 1.3440404328726332 110 109 104
0.3348889377854776 0.4787948409511328 1.3752163412771226 28 28 30
-0.3260689330363028 0.4666663284083404 1.3432029428385945 71 70 66
0.7281898606127767 0.4719082645742361 1.3486516945893861 79 52 35
0.8125864452546133 0.4773068019027188 1.3392087719272956 128 105 87
0.5355730581845738 0.4734258614788256 1.3502302885061523 39 28 24
0.2616828185082995 0.4806146858675330 1.3661310361280550 131 114 94
-0.1979448318292220 0.3130494033802982 1.6206670001721810 140 136 135
-0.2510743240842461 0.3148563852035107 1.6265649905857433 140 135 132
0.8306955912598544 0.4791127457048772 1.3624759803646829 80 53 36
-0.3128325757495756 0.4742873110515471 1.3452521767539545 73 72 70
-0.2335496782133593 0.3140079046654687 1.6208200285953536 147 146 144
-0.2978287957643451 0.3138785036140512 1.6159199435281884 144 139 136
0.7860477442029323 0.4780052486729463 1.3556873921032846 166 144 130
0.8336290526202544 0.4792285597344861 1.3393004936385793 140 122 102
-0.2836838719826559 0.3140106562413817 1.6184252965377459 142 138 137
0.7692151104934234 0.4768696446105433 1.3426901973419521 72 52 41
-0.3340602406557238 0.3149201126797768 1.6174969700045776 143 139 138
-0.0917554431175560 0.4818036640721574 1.3458590409003313 49 48 53
0.5203428841172025 0.4795458834818247 1.3388303880058958 44 25 19
0.7600077463522356 0.4802069642458764 1.3397940876228902 42 27 24
-0.4329628295574071 0.3153817382898823 1.6105234561828308 137 133 132
-0.4325350810703016 0.3152152307134619 1.6094759939376111 137 133 132
0.6377958778075602 0.4777002419144933 1.3284109350078190 59 43 43
0.3992764154420950 -0.2809886243025906 1.6808383877171178 198 197 192
-0.3977907244566205 0.3152127410031784 1.6110242699342168 140 139 137
0.7466347967643880 0.4807125538023069 1.3242709169909590 41 23 23
-0.4826521881617840 0.3156249053760783 1.6077047638583006 143 141 142
-2.1927050978001841 -1.5955383205720444 4.0139311092113132 131 143 183
-0.4828095535420828 0.3156773368619041 1.6080607770396522 143 141 142
-0.4476162943677092 0.3153557887995296 1.6095955032484883 142 138 137
-0.5330945975626753 0.3156404429016071 1.6058707552593872 134 132 133
-0.4980959380659363 0.3153734991436059 1.6069498346757072 138 136 137
0.9621171788439176 0.3395758982039045 1.6783158257781550 137 137 135
-0.1229219671709995 0.3297913647065440 1.6276951044610972 137 133 132
-0.1080840495474908 0.3300528466844766 1.6295469686726447 146 141 138
-0.1723504568441563 0.3296103764199936 1.6219654431409476 149 144 141
-0.1578427592114986 0.3301880745891164 1.6258563627125864 143 138 135
-0.2221217069615407 0.3306140829929838 1.6219510567393436 145 144 142
-0.2714475509450501 0.3297459894566616 1.6153833109383202 132 128 127
-0.3213444978936414 0.3308887694137005 1.6143446164903343 141 137 136
0.8583486831317684 0.2085683331317989 2.2080142208113815 67 67 75
-0.3067022148001640 0.3307626000838402 1.6156109417114350 145 141 140
-0.3580197023264333 0.3320250399631468 1.6152498968419380 145 141 140
-0.3574011012840040 0.3317981667212382 1.6141361808453412 145 141 140
0.7420229619866421 0.2652208179143724 2.1966530886034188 73 75 87
-0.3736458363895291 0.3322090464121725 1.6154238659409814 140 135 139
-0.5403546544414760 0.2232558987657270 1.6106054918942005 60 60 62
-0.3723334373838113 0.3317806312914460 1.6131480905511677 140 135 139
-0.1433830742420699 0.2551876580645396 1.6360880477837891 66 65 63
-0.4219638171066186 0.3312253516131412 1.6089125869722416 144 139 136
-0.3628526588753807 0.2721083591832243 1.6158113519816710 56 54 55
-0.4079844446066238 0.3322816270433190 1.6127026039372003 140 136 135
-0.4721925897080446 0.3316977109041400 1.6070913767144777 148 144 143
-0.4573075702231326 0.3319454610852164 1.6088155133051072 149 143 143
-0.5074691492540728 0.3320503671437712 1.6067749874642614 144 138 138
0.3741882719115827 0.4149967795821440 2.1776021847906479 96 88 85
0.3246440795742882 0.4141811199951773 2.1698368409634758 84 76 73
0.6292178316807194 0.4196959578603353 2.1836913190025515 110 109 114
0.9378106000879709 0.3563981429012335 1.6773217457179237 140 139 135
-0.0620808034709869 0.4283236069007646 2.1474126421203379 49 43 43
0.9528461120047034 0.3559257542970939 1.6758495292688522 140 139 137
-0.4158596040564493 0.3576272203543175 1.6095085608882245 65 60 57
-0.2641182518116283 -0.1211540067916607 1.6505558439161074 146 142 133
-0.0992840133055797 0.3462305938311552 1.6293201550862422 144 140 139
-0.1487045020066375 0.3459457487295191 1.6219465987637354 143 138 134
-0.2506282029929618 0.3478148088926690 1.6226621249000850 139 135 134
-0.2337840893805463 0.3470289447191328 1.6197377151804906 145 141 138
-0.2835975020804297 0.3473555513449266 1.6165389306689684 141 137 136
-0.3339895802534499 0.3479395615865512 1.6146636141214636 147 141 141
-0.3483843691289746 0.3476486216516189 1.6108147719741155 138 134 133
-0.0412130125389594 0.4376591053038916 1.6250777399355230 53 48 44
-0.1131842948379248 0.4366813914788292 1.6200379516891565 49 41 39
-0.0904240082281786 0.4384361193302984 1.6237760994090407 51 44 38
-0.2418391647927833 0.4396843535953572 1.6160602190007123 51 43 41
-0.4480711131226852 0.3481507943383109 1.6061320224543536 139 134 131
0.5488155070615861 0.4515616694483292 1.6536719500383239 76 57 53
-0.3130148426921930 0.4389271371294410 1.6101015002902925 43 37 37
-0.3637050941645593 0.4390672611589936 1.6071564810133445 40 36 35
-0.4330132088208546 0.3486376396970990 1.6092655441749710 142 137 134
-0.4646574238026114 0.4387492925453308 1.6018842373147839 50 49 47
-0.4832886660235286 0.3486575108741450 1.6066672603318350 137 133 132
-0.4975004710378732 0.3484134566000530 1.6042798701427383 136 132 131
0.6745098864709229 0.2536073081371131 2.1942023435734259 71 75 86
-0.3745210173077575 0.1986211829067400 1.6215204102240239 169 169 171
0.4658074846156818 0.4220036458321804 2.1810176686467431 131 123 120
0.3668737768182639 0.4222400930264253 2.1753303553392001 125 117 114
0.2832412943198335 0.4207601706259623 2.1614366658557551 114 106 103
0.3157518058876797 0.4212472308484354 2.1641311150918332 126 118 115
0.9165320674704382 0.3751738604151664 1.6826092404199635 132 131 129
0.2333529525169151 0.4213841501642549 2.1615294903880824 122 114 111
0.2658065576085826 0.4207220867543253 2.1597870081596571 119 111 108
0.1180888788997813 0.4220506694935102 2.1602592188033096 104 96 93
0.1364672725268654 0.4218576630340890 2.1587008662322282 107 102 98
0.9394491317697315 0.2251897630909759 1.6896188003769610 151 151 151
0.1676854995539994 0.4217989970108801 2.1586023845013775 115 107 104
0.0347031955703836 0.4223258057381483 2.1574808804723342 102 94 91
0.0687717363576014 0.4221301926061296 2.1561113151309028 116 109 103
-0.0571795153962189 0.3630556528853493 1.6285133367583875 137 132 128
0.8777231882774523 0.4195684776579813 2.0650987743244649 56 52 51
-0.1590689735451037 0.3633863568949366 1.6252517315406920 149 145 142
-0.0836703628587322 0.2141532444806679 1.6408774290920378 144 140 139
-0.1232856276580629 0.3628495097416449 1.6254527452484533 137 132 129
0.9208005928055220 0.4329075947180421 1.6704529676418802 59 58 54
-0.1717319691781912 0.3623732993030183 1.6197620665359391 148 143 140
0.9640271444863020 0.4398190961784980 1.6751554354533400 116 108 106
-0.0978340678257969 0.2140778220825558 1.6333549182419638 145 141 142
-0.2228299271364816 0.3634249239928156 1.6200806238351890 141 136 133
-0.2327788336407927 0.2135571303909356 1.6293829239057007 149 148 146
0.6672520628831641 0.4501771965167124 1.6524658237540459 80 53 44
-0.1977774400934457 0.2131795174416957 1.6267171815384891 142 141 139
-0.6624616208455747 0.4435592678751469 1.6338345441986122 42 40 43
-0.2074649253168286 0.3633754723157632 1.6194547784171056 139 135 134
-0.1830082070829107 0.2140887186722257 1.6327337360023968 143 142 140
-0.2724542325567701 0.3635082361975760 1.6161815185674111 139 133 133
-0.2467541439065562 0.2135400076628128 1.6236202525896846 144 142 143
-0.3920584783916335 0.4408215751943662 1.6081849201268767 49 45 42
-0.2966641533453003 0.2138806094371750 1.6210782465933748 150 148 149
-0.2579966132486206 0.3632750845723117 1.6176155554240852 142 138 135
-0.2831010731178599 0.2149336067446397 1.6292246433485167 145 143 146
-0.5073592304479768 0.4525787326596565 1.5899726079194638 44 45 49
-0.3469822792829030 0.2143902394903739 1.6217133568406852 143 143 143
-0.3454093122274178 0.2138574145808185 1.6179547352736057 143 143 143
-0.3076150741635303 0.3644196875563312 1.6148107250705757 137 133 132
-0.3724631984223478 0.3643296635203598 1.6104404676093138 141 137 136
-0.3975976468294281 0.2151614635934860 1.6193689482329030 143 141 142
-0.3576075581014688 0.3648623002181552 1.6120053458358574 138 134 133
-0.3837608753011450 0.2156086884916739 1.6228388082121765 146 144 147
-0.5457679918674949 0.2142125904655005 1.6053675056051171 133 133 133
-0.3220197071923183 0.3638171722393905 1.6102019022286147 140 136 135
-0.4229326920974389 0.3650228522406546 1.6075490079316268 139 133 133
-0.4727497588229561 0.3647639928435154 1.6050048611003156 135 134 130
-0.4571761119539197 0.3648972173231517 1.6056000804871053 142 134 132
-0.5227127390941629 0.3649654909260434 1.6026162312818863 140 136 135
0.9004118615301941 0.2410989903910407 1.6809441367252247 144 140 141
-0.0737848896776331 0.2311535059105635 1.6382129856378831 142 138 137
0.9371168213909341 0.3895181160269490 1.6725999142456118 137 133 132
-0.2263685169405048 0.2318702812097135 1.6366638167685408 146 142 141
0.9505983263460971 0.3880577746329907 1.6668335009247068 133 129 128
-0.2087377577506969 0.2311867095868933 1.6313083568263931 150 148 149
-0.1743735003838168 0.2312106391890620 1.6332129794821935 150 146 145
-0.2581909602143874 0.2308394552321442 1.6275052630298970 139 138 136
-0.0976738273825625 0.3789157851733869 1.6226688481359004 143 135 132
-0.3094600123000544 0.2313886954092347 1.6270505168938958 148 146 147
-0.0831938644438229 0.3790031141779251 1.6250944456807959 142 137 134
-0.3578955866105599 0.2316358791699841 1.6218737695415484 143 142 140
-0.1480302430895701 0.3791861968128408 1.6210619157989776 145 140 137
-0.4106111713365301 0.2317088561396888 1.6222330355456669 144 143 141
-0.1328635209018853 0.3793513518809130 1.6238034258533209 143 135 133
-0.1329590058298254 0.3797260211357608 1.6246773718233569 118 111 105
-0.2329375234171958 0.3803119797578791 1.6204822509241177 141 135 135
-0.2828411631045329 0.3807408943974577 1.6160126867357381 140 135 132
-0.5216529334188386 0.2322668297099323 1.6092597041307537 142 140 141
-0.3474148556711245 0.3811528181647337 1.6101253260019079 134 128 128
-0.5606924837311914 0.2327413279358710 1.6124975466515390 139 137 138
-0.3337476341468359 0.3818326576323351 1.6140121934658354 136 130 130
-0.3979862744847141 0.3812945317256360 1.6087858809336890 131 125 125
-0.3832216418787182 0.3817667707497623 1.6105666853966087 138 134 133
-0.4473300772710523 0.3811797780085423 1.6048910126349845 141 136 133
-0.4332038665002436 0.3815060047689787 1.6069397620774009 135 130 127
-0.4831970779831752 0.3818584119700055 1.6049323750073261 131 126 122
0.9403743002265568 0.2587548728798271 1.6898266698243380 145 144 142
-0.4971625295619597 0.3812389260364508 1.6015207160105787 135 131 130
-0.5584949000678453 0.3818967481429607 1.5998262561260665 126 122 121
-0.0847296555024342 0.2475545736883151 1.6392046295444225 142 137 134
-0.1510981240471559 0.2478315341152768 1.6374185502209788 139 135 134
-0.5331567641217119 0.3818665632599730 1.6020332333125635 131 127 128
0.9002894485822486 0.4059337545194787 1.6667734138007255 129 126 121
-0.3473237097031472 0.2478766077166669 1.6187388518891435 138 138 138
-0.4333406554490266 0.2490475006805174 1.6167878212532301 153 151 152
-0.4156446708536267 0.2482631992964573 1.6161451894224212 146 142 143
-0.5618385307530818 0.2494747717939117 1.6126138773108643 128 126 127
-0.5476121165118233 0.2492171517004438 1.6093644107461584 136 134 137
-0.1717230288483999 0.3957960932627705 1.6183355298366320 144 136 134
-0.1572206736612954 0.3967690724786526 1.6225235170185965 155 150 146
-0.1569166370663145 0.3966946778402637 1.6218593685307638 135 128 122
-0.2213056247956920 0.3961625495910087 1.6166420711706970 142 137 134
-0.2069194735246589 0.3969522053457436 1.6202125792124373 139 133 133
-0.2722182262031174 0.3969890364741380 1.6138439857888300 136 131 128
-0.3223825507640510 0.3973853143549567 1.6110921080254788 136 131 128
-0.3083461681887305 0.3980060465332267 1.6142042319970218 139 133 133
-0.3569327148550228 0.3976049885554519 1.6093961219581776 136 131 128
-0.4097694102495314 0.3990107355957429 1.6116538524982567 136 131 128
-0.0735582260147433 0.2631723301009100 1.6332333961490730 125 120 116
-0.3730727511434461 0.3974109776990985 1.6084402188893498 134 128 128
-0.1585995925827549 0.2636534972449661 1.6307194182198685 143 139 138
-0.4227731001395311 0.3980224139831074 1.6059097071615140 138 129 130
-0.4734300738490867 0.3978214629564718 1.6039451242924057 138 130 128
-0.1256167856150002 0.2645968299472812 1.6376981372805188 145 141 138
-0.4572914452396042 0.3978276643860771 1.6034732651926185 132 127 124
-0.5073335812891149 0.3985065882955456 1.6021775252250503 132 128 127
-0.5219333233831028 0.3981122321111407 1.5993189949296869 131 127 126
-0.3073420969986414 0.2645725115253256 1.6240796023124613 144 140 139
-0.3710923002517514 0.2643333042285768 1.6165148749894307 146 142 143
-0.3567648375821829 0.2647014893711189 1.6195742467794010 143 141 142
-0.1328474269205968 0.4127732034400361 1.6216348410277750 134 126 123
-0.1846321788358932 0.4139770430554423 1.6218955238013353 136 128 126
-0.4192990139530292 0.2643246681334765 1.6093673466483702 148 146 147
-0.1474653325851522 0.4125452565299642 1.6179895722581679 138 130 127
-0.2488793520943478 0.4135754045568458 1.6149743974325697 135 130 127
-0.4718134576332854 0.2653082181443859 1.6104767663209361 141 140 138
-0.2330581741805580 0.4134574780540280 1.6148862469897722 139 134 131
-0.4717658925303214 0.2652994881043229 1.6103681597305839 141 140 138
-0.2989331538316062 0.4141883710100597 1.6124114961390574 132 126 126
-0.3982024240274500 0.4135526471066882 1.6033495650756640 135 130 127
0.9542067276352560 0.2906581080649735 1.6838880021833380 145 145 143
0.9039455814508660 0.2913779146339957 1.6862010670126746 148 144 145
-0.4974859966293496 0.4145506421034147 1.6003789072967087 129 125 122
-0.0986173476029239 0.2797285160146966 1.6294460988163040 140 136 135
-0.4855218905245429 0.4167528552167684 1.6084027428692498 126 118 116
-0.0852889728664319 0.2808310582322965 1.6369432946633464 147 143 144
-0.5331849154136644 0.4153973691484174 1.5999013337065111 137 131 131
-0.1492266087383106 0.2800319736084414 1.6303389596082176 145 141 142
0.9477215827513661 0.4400647319627801 1.6772055036262947 115 112 107
-0.1355425534635701 0.2809307688214731 1.6338386122167030 139 138 136
-0.3322620721848012 0.2813801517337866 1.6188399306654391 143 139 138
-0.3001573104837942 0.2814835968293217 1.6238773701402098 145 141 140
-0.1070028300003907 0.4298887263319442 1.6247895716819063 140 132 129
-0.1218551470573599 0.4295490168498304 1.6213823185926632 136 128 125
-0.3474828141964360 0.2814167976081720 1.6166783414033399 140 139 137
-0.3973594963397331 0.2814417133412768 1.6135575135097120 144 140 139
-0.1555734176054841 0.4293727032145160 1.6181226590333657 136 128 125
-0.2211353419146464 0.4302037226679418 1.6156301556245076 133 128 125
-0.2717752746952647 0.4305293522449369 1.6127486731629086 140 132 129
-0.4477269980175091 0.2821458726964721 1.6113882780491424 145 143 144
-0.4843284879396750 0.2828962628968006 1.6132096732922785 144 140 141
-0.3204352345958602 0.4299513732358277 1.6070932021552660 136 132 131
-0.4224389572695896 0.4309858641247304 1.6037146876539305 139 131 128
-0.5482976260221373 0.2823723963780936 1.6070903727527068 121 121 121
-0.4599805658702111 0.4332548381550299 1.6082278556770480 133 128 122
-0.5332840809370271 0.2824382429217973 1.6077800777369431 136 134 135
-0.0987819414953329 0.4447586143133396 1.6183171160310190 138 127 123
-0.0825897743756494 0.4474322195893150 1.6256185859452446 129 118 112
-0.1321284691086045 0.4448240018060171 1.6175395003873079 127 117 115
-0.1852290829170429 0.4468721116977886 1.6196445512794153 133 125 122
-0.0721140705701044 0.2958870868089842 1.6289502880824975 141 137 136
-0.3850509573648433 0.4569102551702243 1.5960741213851659 48 46 51
-0.3568025516997773 0.4573252589389905 1.5959974179885976 42 41 49
0.3786852071616035 0.4475507251269717 1.3802954316342997 201 206 210
-0.0401385394533706 0.4491894369375635 1.3643201839408490 127 135 146
0.5575186860835774 0.4591351822645274 1.3878611804251404 120 116 113
-0.3339568989506261 0.4503514170553735 1.3494748068359987 194 196 195
-0.4528433550549437 0.4505820416654019 1.3412690931389593 204 209 212
-0.3403708226643182 0.4517917875894549 1.3457120802155096 192 188 187
0.7314954178848295 0.4651474733097120 1.3673313041757407 45 29 30
-0.0389605138505497 0.4659070544169019 1.3576189371647358 78 83 89
0.0159568654520408 0.4654613851503229 1.3564190440147408 92 89 82
0.6619912792013342 0.4669157498539587 1.3534212545391970 49 32 25
-0.2248089544509835 0.4783918942054562 1.3456489604657493 49 50 54
-0.4650109170804594 0.4602702403113507 1.3373575286227857 87 89 88
0.8063700820060367 0.4541984068757977 1.4010422959875266 65 64 60
0.5938500420631985 0.4538596181219277 1.3915991636009386 161 163 162
0.7051104725919354 0.4542056281216560 1.3934881341563323 38 34 33
0.2470920438620389 0.4545584890871954 1.3729189459018352 68 73 76
0.1789094373668506 0.4573605502492109 1.3690430166348082 41 41 39
-0.3465975422850434 0.4565391047692415 1.3415409673465255 53 51 54
0.8079963496572992 0.1538655189249047 2.2239204040804106 82 85 94
-0.0505921286315808 0.2147432462683135 1.6481358674223860 150 146 145
-0.4682269053772457 0.1937901488889388 1.6132986140758840 161 160 165
0.0932094295791954 0.4478437608177520 1.3680159607501607 132 133 125
0.7341377109647645 0.4556599480178019 1.3981505869878068 53 52 50
-0.5565752270426982 0.1929686169311704 1.6136552584450021 143 141 144
0.1080412609295199 0.4724355484405314 1.3582540760854556 88 90 87
-0.1593817519451225 0.4509438518848384 1.6124558164667158 138 123 118
-0.3221108209043617 0.4558387319550166 1.6092760557965580 78 68 67
0.2795606000394854 0.4585428180691200 1.3734158437712092 55 51 48
-0.0266758202964030 0.4618823882031446 1.3542796006262363 51 51 53
0.5933194449086874 0.4691903628377982 1.3559889947850836 83 63 56
0.6157889436563091 0.4694721847771268 1.3567521667968376 35 18 10
0.5427899066471046 0.4707257742458081 1.3470995605356235 38 22 22
-0.0674075981360513 0.2906850122979808 1.6291431625982884 114 109 105
0.6849704224014614 0.4700467007411875 1.3386074962092023 53 33 26
0.8147410172508417 0.4787621634824736 1.3687693909481058 159 143 127
0.5396228547425471 0.4749208050919813 1.3451428079453112 47 32 27
0.1558850818389192 0.3786569995946621 2.1597022418291241 72 64 61
0.7338406326653587 0.4750328687795191 1.3515005163940987 133 112 93
-0.4172715076827866 0.4806158061704511 1.3408075171205736 41 39 44
0.5505281669894784 0.4764729101652002 1.3410667370864950 56 31 26
-0.3773182082262726 0.4835357448452708 1.3415104687959494 123 124 128
0.6042866954158325 0.4771010177380803 1.3369250809980426 48 27 24
0.7642081935353695 0.4794477583061511 1.3394821123133778 144 116 94
0.1941903390258219 0.4305811100496644 2.1637996766046870 73 62 58
-0.3339173508084142 0.3397604377571365 1.6156790222009825 61 55 55
-0.0931271541231852 0.3735071918579548 1.6242075249609527 112 105 99
0.9231109595547374 0.4011513656923754 1.6719654198051268 125 121 122
0.3061846623241226 0.4481261160127829 1.6425782447879083 48 44 43
0.4070534949020330 0.4509713044037813 1.6432167829945021 78 73 69
-0.0745313687271743 0.4545693333940926 1.6220792448888208 64 58 58
-0.5633226253685429 0.4486031646370496 1.5870280422238245 96 103 111
-0.3351448161186276 0.4598236676749461 1.5980856623143023 45 49 58
-0.1717414190720864 0.1754670647077587 1.6297039812026897 182 173 164
-0.6040287863966686 0.4623824456125336 1.4892497110524936 48 38 46
-0.2379510225000459 0.1780264423382378 1.6292270787618701 49 47 48
0.8281108769611146 0.4441900223539352 1.4157852217045728 162 167 163
-0.6350231250281257 0.1752617936554582 1.4645520038883812 158 167 176
0.8162871249684581 0.4474694884753685 1.4034573889409956 175 183 186
0.5390818661729591 0.4459565784222724 1.3857689215713764 200 205 208
0.6991004441322296 0.4468288969591260 1.3946571802009120 152 154 153
0.5558031849537126 0.4476378443559883 1.3899658489000131 174 176 171
0.8153345228284872 0.4500031467463942 1.4008688200982562 54 58 67
0.7616375756320033 0.4512091150388542 1.3995558680021769 157 162 166
0.3502863620187697 0.4521408374558537 1.3763190299112369 71 76 82
0.2354039169946601 0.4528911979288307 1.3692876788363599 104 108 109
0.8328073895469549 0.4582145460347778 1.4001755518498433 106 114 117
0.7943807471100613 0.4596595761526646 1.3994016143624475 57 55 56
-0.2549120308364203 0.4520902628718344 1.3508993195513983 67 72 78
0.3921836210921192 0.4598604320084728 1.3792412510471463 139 140 142
0.6620810518506560 0.4575962992999548 1.3796980668508763 129 106 92
-0.4286580363001162 0.4533064468783577 1.3445356399924036 176 184 203
0.0159702759213716 0.4579975162757984 1.3577327432184263 48 49 51
0.5060991999373511 0.4617840450805252 1.3822440795289725 100 104 107
0.5276695579134939 0.4617164843989818 1.3789702587926966 175 148 129
0.7660649346688271 0.4621927958743274 1.3898195959510045 64 45 39
-0.2842136886758028 0.4582161210100432 1.3487095057476644 159 163 166
0.6258299695407814 0.4613834216960438 1.3756521718545587 39 23 10
0.5664119384803786 0.4634085525532505 1.3786781362010501 225 226 228
0.7168837857070619 0.4619399634633462 1.3759141687060752 60 37 29
0.6129034300610896 0.4630677953651076 1.3721171520403110 61 39 28
0.8119694997992761 0.4706017463483629 1.3999137854047019 81 82 77
-0.3055177488362633 0.4631308840822178 1.3466648940639299 133 128 124
0.5163985965280493 0.4657776736341654 1.3684459347466360 65 37 25
0.3820879263275166 0.4701715098189296 1.3759377138458262 114 114 112
0.6144621118846606 0.4654888047955534 1.3638721420311031 34 18 5
0.4789835580145588 0.4718058569277598 1.3733683474790013 74 48 33
0.1223584877053281 0.4731585446620999 1.3648251069271642 88 89 84
-0.5515432062095149 0.1754598139536367 1.6126149547553641 159 159 159
0.6268737357347901 0.4666611269418057 1.3593575598138870 51 31 20
0.3471296856847436 0.4772686629239426 1.3751765033519716 98 100 99
0.4858553494882894 0.4722313096689879 1.3617104297670108 135 112 98
0.5291169097870850 0.4689173428708633 1.3532759055491757 54 34 27
0.7130444299667674 0.4646019747610214 1.3466093918504169 127 102 82
-0.1084404782800539 0.4769637082573900 1.3532760540405153 46 48 45
0.6596506541025018 0.4714490449047479 1.3530377449221958 60 41 37
0.6423277961937074 0.4709849337996322 1.3504647000409118 56 27 13
0.4599791547057984 0.4808462775312802 1.3695937242006884 45 27 23
0.7198787521930280 0.4699811797536858 1.3459910213945037 171 144 117
0.8196683083615095 0.4787835335189470 1.3748485274234821 45 25 18
0.5479612642794083 0.4730733692391296 1.3456109562360241 47 19 15
0.5121197976118853 0.4751110967024340 1.3441807352022279 129 102 81
0.6112368988560454 0.4741516464624637 1.3407484754990826 45 25 18
0.6034549928425170 0.4751437972004450 1.3396058949049212 101 77 67
0.6444973243922538 0.4739720137730592 1.3366409656421652 47 23 19
0.5673722196929751 0.4774897978310765 1.3332365189813200 142 119 105
0.7117750147046608 0.4770574175143356 1.3341635801064653 153 132 111
0.5662024013009863 0.4794708110224951 1.3337821884172627 36 18 14
0.6568997117471137 0.4785400057076271 1.3316934951279336 36 20 20
0.6218426446939780 0.4777129345059030 1.3242656414305383 105 75 67
0.6431807882685808 0.4789844800634741 1.3278432997618406 156 126 92
0.1058669351838981 0.3962392556744938 2.1582305619240056 72 64 61
0.6363979757338467 0.4055348897858881 2.1846293991739518 37 37 45
0.6900550513859357 0.4201488528562777 2.1856088821395740 188 188 196
-0.5459842945408726 0.4499372673904215 2.3216579654813283 124 116 113
0.5232057521668396 0.4266963282716597 2.1762319444160263 71 64 58
-0.4620335478658220 0.2396618350639731 1.6122118783804316 83 81 82
0.8872543915173965 0.4024871731562240 1.7878655245192303 58 53 50
0.8904431467609587 0.4033619510316570 1.7803280560020249 64 59 56
-0.4860988366074659 0.2560626319979658 1.6077506124696193 70 69 67
-0.4418074982418581 0.3740834659815125 1.6088171001855656 56 51 48
-0.2128925041630305 0.2712021827318384 1.6214409024529852 55 55 53
-0.1904788766028708 0.2723415371502744 1.6254687788736186 57 56 61
-0.2923570714090449 0.4069786044315657 1.6147400657171913 46 40 40
0.9170569259700814 0.4357139072326839 1.6703940073306955 105 102 97
-0.4157602600911648 0.4304797174059132 1.6075610838584131 52 46 46
-0.3420953342882502 0.4361736637322983 1.6096541844220214 111 101 91
-0.3635878227310927 0.3059878047399890 1.6138666305173464 55 53 54
0.3023483525158475 0.4112263227289304 2.1631702493384966 51 42 33
0.0768702404987292 0.4290306565826864 2.1539199804968923 71 61 59
0.6480990750332425 0.4483630383726356 1.3915633144524246 122 126 129
0.3584653291095067 0.4482826786259880 1.3778460884864023 151 153 150
0.4220944793911350 0.4477590192162511 1.3784949035197807 177 190 198
0.3974288591191981 0.4506786796438045 1.3801524511968282 83 91 94
-0.1279022417134125 0.4504652304897284 1.3568700572524335 200 202 199
0.0329190574693776 0.4513358208136585 1.3609362209399314 51 55 58
0.8547309840293996 0.4585914225605233 1.4010730884544651 90 91 93
0.7073631841658871 0.4580858262485815 1.3912756793760388 67 52 49
0.6970407506129530 0.4594976109893953 1.3894585902707655 149 115 106
-0.0911262162565381 0.3709760616954925 1.6249060071167019 44 39 35
0.5504664035994621 0.4614756608657787 1.3812312093890868 110 88 74
0.9186341356038428 0.3799906783683069 1.6700438408947935 52 51 49
0.5238408487511278 0.4649863399316185 1.3791177770176608 59 36 28
-0.0766652962665772 0.4632037684841509 1.3557682958940935 102 102 100
0.6504603343053416 0.4620697479842841 1.3736084462160267 112 89 75
-0.0975334132659474 0.4654222232558000 1.3560326045867359 114 119 122
-0.3652217207194456 0.4055023819053135 1.6091329336643496 49 43 43
-0.4450645266983737 0.4104270307535272 1.6038982694170028 134 126 124
-0.3960570918495052 0.4182043192543383 1.6064768054934453 137 129 127
-0.1679985844886459 0.4249512597605581 1.6183753193020318 139 131 128
0.9468032307616951 0.4351652129948143 1.6711357711261563 131 127 124
-0.0049152756743445 0.4520472985427603 1.6227000555029387 76 56 47
0.7291523389236731 0.4472492678555187 1.3982141804412958 141 141 139
0.7604182697965567 0.4555439124782850 1.4013180737991506 48 44 43
-0.3104841175136683 0.4506112135340596 1.3605353492560670 183 185 182
0.6872381943006782 0.4584633607520744 1.3856757910403661 141 115 100
-0.3432318928315567 0.4557322499578846 1.3464084942521790 145 141 138
0.2063222756031735 0.4629781160700791 1.3688241879382756 54 55 57
-0.4065626026520164 0.4560723226898188 1.3419778472736872 53 56 65
0.6400519274642960 0.4638292830509815 1.3734406682646900 35 25 24
0.4504711792839461 0.4802606254333050 1.3739741065963287 52 37 34
-0.0186108444946803 0.4808396597008966 1.3491404070703006 69 51 41
0.8109171764161102 0.4795511257325605 1.3692256054681839 39 20 13
0.6911717615252236 0.4772802944014688 1.3352527957475162 122 98 72
0.9280738443235949 0.4591373072426744 1.6759844429388278 44 44 52
0.4944586997598169 0.4546662027530346 1.3822628631134157 55 51 50
0.3410364400477322 0.4477395693101438 1.3778787605400455 171 177 175
0.5485455886289088 0.4630950319760548 1.3464839924537009 65 43 30
0.2846841897221062 0.4519200123984528 1.3721675717935375 51 51 51
0.7137309030943467 0.4719566606244562 1.3441064617512766 45 30 27
0.5148022154355696 0.4785306153930776 1.3437558704277435 40 19 14
-0.4669874081795118 0.4518339278012520 1.3434867360359226 177 186 191
0.8139885215115739 0.4719944770443619 1.3962113679616577 63 39 35
0.5794826396122071 0.4667677230552226 1.3683205782166987 79 58 53
0.4646360839909638 0.4788873500553564 1.3669747132388019 51 32 28
-0.3197648696278136 0.3303239418365643 1.6113108494910811 141 137 136
0.4878350344440283 0.4814946573829167 1.3367468254053385 176 155 150
-0.3075020785180984 0.3313192524066204 1.6190027333555965 125 117 114
-0.0826589186003615 0.3462377026011000 1.6275867989611308 125 118 112
-0.5597162208576207 0.1844612051639920 1.6110985218388740 140 138 141
-0.0568228830510762 0.3628119099941970 1.6274308288672079 137 132 128
0.9603654073052256 0.3722852167743083 1.6733284479044124 158 157 155
0.9028583422906166 0.3740173483334321 1.6772532436924383 130 126 125
0.9218851270859011 0.4479510796869632 1.6713498504800381 64 60 57
0.9368986523196926 0.4477926268460167 1.6665020606380121 43 43 43
-0.5094059349666640 0.3656332216805246 1.6068258964280613 139 135 132
-0.5611430691728929 0.3666917699470434 1.6067154954938314 117 107 106
0.7543095914715459 0.1629795934783597 1.0905400705189143 149 145 146
