ply
format ascii 1.0
element vertex 702
property double x
property double y
property double z
property uchar red
property uchar green
property uchar blue
end_header
0.0761027876399789 0.4143370441442458 2.1572691584665602 76 71 67
-0.2730044124807923 0.4554558618736126 1.3458915168547547 70 73 78
0.9712321345139214 0.3337710448577458 1.6737000956739898 134 134 134
-0.0436189201672594 0.3251921119198359 1.6294127710015254 147 143 140
-0.2645298482152041 0.3226870873539807 1.6192999848571039 46 42 41
0.6362381161544162 0.4657462461949062 1.3713043418722479 181 148 139
0.2751819178619634 0.4285241648454052 2.1609950079311391 47 40 34
0.2256848713402952 0.4291900645814991 2.1589491375515197 72 66 66
0.2195939377989046 0.4680705411684584 1.3686993600271486 90 91 83
0.7450440530633491 0.4659581197770549 1.3683979906174231 51 28 20
0.1271718576191513 0.4282700005949157 2.1523896224258761 55 47 44
0.1271718576191513 0.4282700005949157 2.1523896224258761 55 47 44
0.0774735646737746 0.4287266987614184 2.1510813772157595 71 61 59
0.5660538271962452 0.4663876067874751 1.3625072971393983 43 22 17
-0.3841646850579703 0.4570078316627134 1.3383641433469973 121 124 129
0.9471981907572986 0.3494786918690924 1.6826607924997203 63 61 62
0.3765819628664255 0.4731275468050100 1.3760406989459508 52 52 52
0.8343536910993895 0.4757173062190699 1.3847562092091581 119 98 81
-0.3294092723296114 0.4606207427203114 1.3394619791947262 84 79 76
0.7368743183226701 0.4688308276787710 1.3616949169393586 60 40 31
0.5081146185181546 0.4709376623070796 1.3632393247562673 108 81 64
-0.3136650210398257 0.3384212310346058 1.6152601096185029 78 74 71
0.7945813338311004 0.4728099102076716 1.3698352514623608 155 127 113
0.7329787189158183 0.4699268590590605 1.3594567333310146 120 87 68
0.5051493581532696 0.4724900036077031 1.3602944068907590 41 23 21
-0.3016345410954706 0.4673704644736416 1.3426382635430345 127 123 120
0.0207617117706008 0.4747727244385705 1.3568098991286781 78 77 73
0.5223616101923361 0.4728597010427935 1.3523727166705708 43 24 17
0.5426727268688655 0.4704009670325219 1.3457044730040664 38 22 22
-0.1128014138383813 0.4735033213696646 1.3527868173871267 99 99 97
0.7196546951426004 0.4699095624578584 1.3446663131877687 171 144 117
0.5188671497846719 0.4738283828153665 1.3512317093182951 49 26 20
-0.1155474804796189 0.3546154845977507 1.6251125253107759 71 67 64
0.0883444741188055 0.4796711038425123 1.3643232184091145 107 109 108
-0.5200907981768841 0.4709888578226529 1.3355850700884773 96 95 91
0.3734078870747973 0.4807599417153202 1.3647991484523634 107 100 92
0.6245696786888670 0.4746805336504085 1.3482128164954450 132 101 80
-0.3900133234856663 0.3558865119385590 1.6094719615661026 53 51 54
-0.3657551001068360 0.3570347354962706 1.6126672119441035 52 50 51
0.1823661177778367 0.4821648099729440 1.3612051349677488 169 151 131
-0.3714507023389838 0.4725570052788570 1.3413713270075778 69 70 72
0.8992893688330206 0.3847826495089450 1.7033927782980387 62 58 55
0.4690600528486943 0.4805286171709148 1.3479206912033217 108 89 82
-0.4694812411495020 0.3605377540937625 1.6057414145809414 111 101 91
-0.4161426566035623 0.4774392459554449 1.3396629502722956 100 101 106
-0.1643815273926476 0.3699389944012392 1.6209856434230911 70 65 62
0.8193895397095239 0.4807413101524323 1.3454839627721298 74 47 38
0.4918279887825442 0.4804397092991013 1.3398958022025698 69 48 45
-0.2641245382487337 0.3709646496400644 1.6153612071477876 62 58 57
0.5900711157970170 0.4781102976368691 1.3322205409274337 40 22 20
0.5480110632535481 0.4800531022214558 1.3339502220047406 60 39 34
-0.4156021371281514 0.4800666029887597 1.3393862725630372 41 39 44
0.6973345185100328 0.2615233593614648 1.0473509910368710 128 125 120
-0.3246267339036983 0.4817774034648026 1.3426178845705194 86 82 81
-0.3908157622642961 0.3737148141256321 1.6110270762701204 48 42 42
0.6804845243079735 0.4787279474742033 1.3247703932999444 138 117 96
0.1857473838497197 0.4832948434555968 1.3306067338183862 123 85 74
-0.0905631973869447 0.3869124688524641 1.6239973999925161 45 40 37
-0.1395889167738602 0.3867185902650199 1.6203650895432131 62 57 53
0.1970760762456476 0.4820782253080671 1.3181596659183963 33 21 25
0.5073756286559593 0.4806604723352658 1.3168655708029273 42 24 14
-0.1896006998522142 0.3873463702346197 1.6196436494898760 56 50 50
-0.3409492090789599 0.4843457212099196 1.3147170641444776 147 144 135
-0.2390209696103406 0.3876507258420205 1.6164357691304470 52 47 44
0.0173439147126440 0.4806282985019392 1.2896723973964210 109 97 85
0.0173439147126440 0.4806282985019392 1.2896723973964210 109 97 85
-0.3395722773659491 0.3887467342147669 1.6103865659566241 53 47 47
-0.2608372939618049 0.3931354404601293 1.6165596648054004 133 128 125
-0.2689191126086656 0.3931597287423819 1.6140579725054649 141 136 133
-0.1598095101870198 0.4009750076850306 1.6209474993466790 144 136 134
-0.1406785559503335 0.4050159866326314 1.6220582262098628 73 65 62
-0.6071179651848110 0.4052525502295545 1.6372351366437803 125 131 119
-0.3146858799626784 0.4050910469984540 1.6108687704369606 52 46 46
0.9437335718027684 0.4283182990137147 1.6739095954773424 114 110 109
-0.3947428887097422 0.4098718236023952 1.6053127080817324 123 118 115
-0.1404096889679601 0.4200008282366659 1.6207561295393946 60 53 47
-0.1910598369385715 0.4208434970378323 1.6175095341369994 52 43 44
0.9187622726617440 0.4371217117217636 1.6753308248173562 105 102 97
-0.2408815198024451 0.4209662001025118 1.6148007165512179 54 49 46
-0.3957735009111684 0.4182086383374761 1.6061592666497901 137 129 127
-0.1101483256934392 0.4332113001744287 1.6232019280856556 127 117 115
-0.4618327655570893 0.4282004645028098 1.6053445245467597 117 112 108
-0.4142657585203703 0.4301009353801252 1.6051656426918617 52 46 46
-0.6477725927242010 0.4436048515340112 1.5973958764724823 31 31 41
-0.0435111436494358 0.4552570833827929 1.6191001272503807 210 224 237
-0.2961726842197365 0.4531680292694602 1.6116768094275509 101 89 77
-0.5275891765267101 0.4460107704201411 1.5924397587172470 42 40 45
-0.5988426401678749 0.4510646455451679 1.5598206500159653 85 89 92
-0.3364361505316534 0.4712479852196938 1.5968953489153503 95 94 100
0.8418637800960490 0.4442816916998054 1.4155506850797948 168 173 167
0.8046511814254912 0.4453160217119891 1.4078012782167133 81 80 78
0.8684393206756892 0.4472880055452698 1.4048675068181615 164 168 167
0.8340158748674286 0.4502770850651054 1.4034979741078804 56 61 67
0.8235911331412237 0.4501519815395949 1.4010279394787510 71 76 82
0.7270580344467314 0.4504268155582214 1.3972673295852551 59 59 59
0.0763269928055703 0.4487541907195359 1.3813729489437416 60 56 55
0.4704293176874129 0.4521064544127766 1.3842306997178531 54 55 59
0.3125027876433042 0.4498276470616127 1.3747339810577159 50 50 40
0.8403143532328582 0.4564478118943802 1.3978260718612217 106 114 117
0.1595884655139650 0.4459474638642987 1.3506446071210432 114 115 110
0.3784744890185694 0.4551742244281949 1.3773631307831993 83 83 83
0.7471056118893307 0.4590285472700663 1.3937904593199382 56 45 43
0.4997732069738792 0.4580314433480440 1.3847384062970554 104 108 111
0.6828498172907304 0.4607483639530853 1.3919658730447619 133 102 84
0.8278424823990036 0.4665274791821833 1.4016074170831267 59 63 66
-0.4266841284871623 0.4510378273242334 1.3408506304795194 172 172 174
-0.0014466666585785 0.4568376361395708 1.3576693385459666 45 46 48
-0.1427222105585700 0.4558893373388451 1.3540064448207660 58 62 65
0.0945429778513615 0.4603932110349727 1.3633213392239396 87 91 92
0.4823061850473640 0.4674343172291133 1.3829016394186737 53 51 54
0.6403332744444766 0.4643835754652047 1.3748799142633865 35 25 24
0.3787706000570277 0.4663820121943015 1.3772939438143201 66 67 71
0.5721589475425014 0.4632207319884305 1.3682635014172750 127 78 71
0.4876180348243182 0.4685965491170092 1.3835338302780176 148 130 110
-0.0035209533532474 0.4613666125027596 1.3571846903340909 123 123 121
-0.0686246782435041 0.4610269365858368 1.3563708612623531 51 55 58
0.7737936506815918 0.4699132670882258 1.3706587305203644 111 75 59
0.8035687821803069 0.4744195153263076 1.3832993710616976 38 23 18
0.5751161201535530 0.4693606320516804 1.3640495435691793 140 113 96
0.0982590329960082 0.4710185224763384 1.3603670029005179 124 128 127
0.6762500292681826 0.4662935075457293 1.3454827270011811 49 30 23
-0.3210315838382140 0.4657585140761328 1.3446094031120297 134 133 131
0.5970337406226376 0.4697104440891052 1.3536973193873654 46 28 26
0.7093145862449228 0.4723264048326140 1.3535404423498192 91 70 51
0.1853188756585012 0.4805155953985017 1.3672922500558680 42 42 40
0.6221069678401218 0.4734946785750094 1.3526833759708661 48 28 19
0.0121725171371205 0.4805036875892812 1.3509551821306474 38 34 35
0.8207941377981050 0.4776084915418526 1.3462183623437300 154 128 105
-0.0510372929478663 0.4829815102520549 1.3535694162496597 60 58 61
0.8452260222940846 0.4814645255155371 1.3506186443599020 132 104 90
0.8450519889095369 0.4813462580266613 1.3502517899975870 132 104 90
0.8146957059977011 0.4761692515949204 1.3228857502956632 174 150 112
-0.3085537786743052 0.4827540483565493 1.3394980655378868 59 60 65
-0.6348221093764026 0.4368760243017610 1.4533525441249497 60 46 45
0.8456366002411452 0.4478757462266305 1.4046562789796284 74 81 87
-0.3540386237025940 -0.6596252815394870 1.6724490801463401 205 205 205
-0.6484160750991749 0.4441434690153493 1.5563853620293109 34 33 38
0.8521324981602001 0.4445421999570823 1.4039397293982228 143 143 141
0.6774140866298675 0.4461161620961352 1.3968562837817338 178 183 186
0.1195898009897682 0.4468926722925169 1.3714649692397161 149 154 157
-0.3705835715406144 0.2978810117230323 1.6114787399025265 145 141 142
0.8107861647280363 0.4523208410947464 1.4060772528372925 66 67 69
0.6792968891061386 0.4502596769910989 1.3947368108899343 62 67 71
-0.4209657075723544 0.2980897788596535 1.6095183687498074 143 141 142
0.4425603223390603 0.4526775886500017 1.3836588246244672 55 55 55
-0.1377163748080676 0.4499114524541850 1.3689964038576843 79 60 62
0.9085655628841692 -0.5687994997207669 1.8031045386348612 171 170 166
0.2612283123272193 0.4498327894083988 1.3711385037870156 45 48 39
0.2183016914957560 0.4492575305135642 1.3704012574488029 82 83 78
-2.2305693281377428 -1.4109765510982493 4.0593152538565471 145 152 196
0.6288251049519648 0.4569675095130120 1.3888738179068452 52 55 60
-0.1997306579386491 0.4499340187880892 1.3563302039234981 195 202 208
-0.0219781595653567 0.4531794369097055 1.3619307409702099 51 55 58
0.3166501874383658 0.4601866289227030 1.3771747472117004 53 53 53
0.5611063699504130 0.4617564142590515 1.3792365498413020 67 51 38
-0.5046006698560033 0.4260236120328039 1.2727124727475527 113 114 119
0.1181595914545213 0.4980718083849221 1.4758707361074312 38 37 32
0.9028351113334531 0.3238985981562076 1.6802262546828231 149 143 143
0.3959596947892007 0.4672012405711911 1.3775806770854255 63 64 68
-0.8256878697150887 -0.4841140778815118 1.8000762799482872 222 236 255
-0.5438194573321488 0.4540933367139566 1.3375401266157132 159 159 157
-0.7790646838390602 -0.4697720971840523 1.7735466719713071 140 149 182
0.6762772398880309 0.4654693310396253 1.3611733779447672 41 21 12
0.4911409971615874 0.4706011084252315 1.3677140930471063 64 44 35
-2.0362687261909018 -1.0352090090547765 3.7269023311236147 131 138 182
-1.0206886061972098 -0.5836986771222522 2.2066973679060342 153 162 195
0.2664208496421966 0.4769885591670416 1.3699795588644244 58 58 58
0.1257751771231825 0.4718875351140130 1.3654613880447088 49 49 49
-0.1343324982738408 0.3128820503627023 1.6284340825598145 140 134 134
0.8211149394282148 0.4776611722596313 1.3606520355794394 63 35 21
0.6343627239839434 0.4735277137885118 1.3429488565872836 48 24 20
0.1213969005403874 0.4740890490068478 1.3665056180342607 88 89 84
0.3348771888330736 0.4788597690754492 1.3753845302416075 28 28 30
-0.3255292747068387 0.4664684834196834 1.3427913583278492 71 70 66
0.8876787460074956 0.5590624091320335 1.5571971485702738 128 105 87
0.5355980429044840 0.4734934979608244 1.3503618533281148 39 28 24
0.8125043129309039 0.4772352349560754 1.3390297662002091 128 105 87
0.2616331221160642 0.4808645506225133 1.3666404269593000 131 114 94
0.8306035420541737 0.4790806729441289 1.3622042676515727 80 53 36
0.6151821368448924 0.4759259329412039 1.3296011949966402 34 18 18
-0.3127507570343596 0.4741386412635059 1.3450342544426326 73 72 70
-0.8007096914420183 -0.3843353827924406 1.8077197856979161 232 245 255
-1.4338116063488286 -0.5120365432823799 2.1883237872611971 89 97 120
0.7694458755963157 0.4771900402979084 1.3431408364968462 72 52 41
-0.3351926996076710 0.3154719904371944 1.6204630262049036 143 139 138
0.7408000944791754 0.4731462993999198 1.3264957735029383 41 27 27
-0.0918062042670548 0.4818435219006755 1.3460168871935621 49 48 53
-0.5185668590041512 -0.2516317760466364 1.4022738769048084 198 215 241
0.6378330775127549 0.4777079226805695 1.3285525331977728 59 43 43
-0.3984073566095172 0.3153558790741414 1.6123002778835340 140 139 137
-0.3968893512522578 0.3146552314280897 1.6085744835956446 140 139 137
-0.5911220059213916 -0.6530331309417052 1.6998244666193727 254 255 255
0.7467141712934581 0.4808015536788601 1.3244650972360923 41 23 23
-0.8427908119408345 -0.2988082259407417 1.8264255716725459 247 255 255
0.3592810449444364 -0.2373704830319883 1.6770183815254036 195 184 166
-0.7148311340203303 -0.1945713701493727 1.7002789299561578 226 237 255
0.9426718437062493 0.3389204758934893 1.6752860309630475 145 141 138
0.9426718437062493 0.3389204758934893 1.6752860309630475 145 141 138
0.9787003103325722 0.3399199034957635 1.6818112155257499 140 135 132
-0.4217502033139798 -0.0939823401497425 1.2840262507473965 252 255 255
0.7817940880529323 -0.4553308000537321 1.7058318026221120 201 200 196
-0.0568664669940333 0.3299538470165365 1.6306256360646925 150 141 136
-0.9554575064000059 -0.1614158027733221 2.1113520923382736 241 255 255
-0.1084968057248469 0.3302188127178948 1.6303071056070899 146 141 138
-0.1084968057248469 0.3302188127178948 1.6303071056070899 146 141 138
0.0655940886000297 -0.0747128798666529 2.1849474449682553 35 29 29
-0.7652019211241667 -0.4091731644239207 1.6943780141199150 246 254 255
0.8732718647219552 0.2001789344083455 2.2003713631228075 46 46 48
0.6790165610823164 0.1978888188657155 2.1950549414238605 48 51 60
0.6790165610823164 0.1978888188657155 2.1950549414238605 48 51 60
0.8581476894492001 0.2088072347701518 2.2079990770600064 67 67 75
0.9028780770886742 0.2028151766230117 1.7352842667185577 60 60 60
-0.2549776128779496 -0.2225111776607310 1.6476446583993272 141 132 115
-0.2549776128779496 -0.2225111776607310 1.6476446583993272 141 132 115
0.8599611141311638 0.3384053272503955 2.1989957611279958 63 63 71
-0.4429020381269120 0.3323691674124029 1.6120480334301563 124 117 111
-0.4081431502659720 0.3325168588716012 1.6131802427640742 140 136 135
-0.4092519704077355 0.3327064283115936 1.6156150475905680 140 136 135
0.3738351453426263 0.4141490546146135 2.1731742276609918 96 88 85
0.3247577882003895 0.4142007613290322 2.1696428172605420 84 76 73
0.6291945321819983 0.4198446501689660 2.1836443230361642 110 109 114
-0.0619502401324273 0.4281182468614031 2.1463994691181933 61 51 49
-1.0493424024121851 -0.2929054426524195 2.0696789683725370 75 86 108
-0.4162356809183190 0.3577884088329990 1.6104420548562832 65 60 57
-0.2574552007538385 -0.1199921106182142 1.6436998379143604 135 124 106
-0.9716903973220160 -0.1534634749090724 1.9595405753710218 69 70 88
-0.5408511242994449 0.3745394832324833 1.6023630015776924 53 51 52
-0.2894598057170488 0.3879360891694541 1.6128222519122741 53 47 47
0.2287690711385217 -0.1932713702786726 1.6802138177692707 84 79 76
0.0228369414813627 -0.0253040005794379 1.6513057117646066 181 174 158
-0.0333105688390857 0.4134860903739663 1.6271268440731157 77 73 64
-0.2485667570009824 0.3464916108646200 1.6167989224744854 139 135 134
-0.0412079242061175 0.4376541854982040 1.6250551090038126 53 48 44
-0.0412079242061175 0.4376541854982040 1.6250551090038126 53 48 44
-0.1918969190415671 0.4387651240415694 1.6179747225364562 43 33 24
0.0245112894864057 -0.0534014758529317 1.6508327802273839 206 205 200
-0.4477050232915593 0.3479146726027879 1.6051926292418592 139 134 131
0.5486480712475689 0.4513331271993128 1.6528736661276160 76 57 53
0.1916247183742024 0.4504861412673497 1.6316234607728803 69 60 53
0.8603046542015831 0.3607332603921900 2.1978431033501669 61 61 69
0.8601613699789658 0.4245036294277223 2.2030565496615844 53 53 61
0.8914341335607437 0.4131605740100210 1.8770776565280860 57 49 47
0.2832403799630838 0.4207523934171925 2.1613763854355632 114 106 103
0.3325295069153202 0.4202678090405815 2.1636990452915481 133 122 116
0.1180716564629561 0.4221798888050726 2.1608056176840136 104 96 93
0.1363358497652217 0.4225488163808218 2.1625043792946688 107 102 98
0.0348816198659139 0.4219585253688892 2.1553689716160673 102 94 91
0.0687395378360917 0.4222787256860767 2.1567117696717157 116 109 103
0.8778539174124858 0.4196536491120390 2.0654597062416746 56 52 51
-0.0847707857080173 0.2144820861950087 1.6447192938199828 144 140 139
-0.0847707857080173 0.2144820861950087 1.6447192938199828 144 140 139
-0.6838696506284215 0.4430002735150890 1.6230783504735400 164 152 136
-0.2589210966224010 0.3638465398103713 1.6201242891930923 142 138 135
-0.5073019477440426 0.4525550795026232 1.5898768146369455 44 45 49
-0.2838947117640309 0.2152280735638092 1.6305659119797784 145 143 146
-0.6459732332111290 0.4437863834502456 1.5284778497911924 25 23 24
-0.3973812618627965 0.2151152558494635 1.6188280198055411 143 141 142
-0.5368103495269748 0.2158749151388223 1.6179231489947457 143 142 147
-0.4572498031920905 0.3649648368504103 1.6057926494765331 142 134 132
0.9712515218685818 0.2435893033901536 1.7067986720992385 153 152 150
0.9265285019580362 0.2409224831673111 1.6830946122095554 148 148 148
-0.5600184841527986 0.3662971982545872 1.6050829655475192 110 101 92
-0.5601208617371679 0.3665653859707168 1.6057484625383207 110 101 92
-0.3094949589332880 0.2313893861160123 1.6271284529920562 148 146 147
-0.3685131645982371 0.2303949338603593 1.6122841832513877 142 140 141
-0.3463728246703474 0.3805657527144252 1.6076515587246767 134 128 128
-0.3843199080600483 0.3822670066004650 1.6131012449779061 138 134 133
-0.4971636271243209 0.3812589814143393 1.6015350928108310 135 131 130
-0.0839588979883623 0.2474032647020145 1.6367803034707862 142 137 134
0.9672568010947810 0.4088454002950763 1.6835080148261492 123 122 120
-0.5346801843235236 0.2496126853943190 1.6138392471522973 137 135 136
-0.2073166846726314 0.3974257916548399 1.6219204534953537 139 133 133
-0.0466115824431358 0.2628048066429418 1.6309040629724281 151 146 143
-0.3082245914080376 0.2647574901743626 1.6254390181445211 144 140 139
-0.1469784389236158 0.4122675041235813 1.6171052377717372 138 130 127
-0.1466332399809485 0.4119127162950971 1.6158944214019888 138 130 127
-0.2853904601293412 0.4151895041909181 1.6172007735936389 136 131 128
-0.4968357274371223 0.4140252499983767 1.5986921815799786 129 125 122
-0.4956945796284623 0.4138324816713184 1.5977571630648799 129 125 122
-0.4103213465944289 0.2997200734390341 1.6190357345116826 115 107 96
-0.3327016821397568 0.2815510282955104 1.6209234176674787 143 139 138
-0.3334925338295206 0.2815806578389913 1.6216778902871016 143 139 138
-0.1206495021506056 0.4283409279416480 1.6173668588922572 136 128 125
-0.3954297610602284 0.2809724782332962 1.6097417391545319 144 140 139
-0.4351993310047786 0.2826524134907152 1.6182249343605841 137 135 136
-0.4495674972968515 0.2825293349811658 1.6143387655857002 145 143 144
-0.5482833535633171 0.2823695686289718 1.6070673975673422 121 121 121
-0.0827286182682294 0.4475167257822520 1.6256468625579659 129 118 112
0.9279626264833994 0.3067907264571261 1.6802699077209062 146 145 143
-0.0436330572578379 0.2951254217615636 1.6253853053710923 133 127 127
-0.1350789509399163 0.4615870542282023 1.4262220623961011 87 68 70
0.0157851226099285 0.4655213528814056 1.3565550502237076 92 89 82
0.6618895823523897 0.4667285278263696 1.3529490849100967 49 32 25
0.1769930616623371 0.4776181243082167 1.3700674746786552 53 52 48
-0.2248856332169298 0.4784831332291917 1.3459009677068978 49 50 54
0.5147618716470757 0.4782320898125735 1.3425856094438573 40 19 14
-0.3949020921072582 0.4818328435497947 1.3346133301624052 111 89 92
-0.3681084448244548 -0.6607690211204102 1.6847426447834057 168 167 172
-2.1092749908919606 -1.1516043799503417 3.8603061318238336 255 255 248
-0.0469384597273242 0.4525846154662590 1.5008006194718992 47 38 43
-0.0905212908502683 0.4489546343833301 1.3607869096802230 123 133 143
-0.7748932579832637 -0.3952031809167674 1.7627976040897047 154 162 201
-0.8790527760480550 -0.3737527258488095 2.0128849265203228 247 255 255
-0.4743437651605064 -0.2375087379764963 1.3861701291793058 117 125 171
-0.6540649514200583 -0.3220475226063076 1.6990688811969252 84 95 125
-0.7104749097270547 -0.2855233786713704 1.6677497547408529 92 99 118
0.3799083333245369 -0.2859236143917474 1.6801387617510894 184 178 166
0.5855663684015759 -0.4233100351153279 1.7085012745399077 186 178 159
0.3504213946383616 -0.2504141955163464 1.6953179359100086 208 205 198
0.3504213946383616 -0.2504141955163464 1.6953179359100086 208 205 198
-0.5534378262061075 -0.6464359918061376 1.6652159265610955 186 193 212
-0.5858191403225971 -0.6272633649273041 1.6848174344816149 255 255 255
-2.1373952622775376 -1.3450035865970962 3.9690976020201028 115 129 158
-0.4047679555724212 -0.0480705235412430 1.4500013291158327 85 84 92
0.8063590531493467 0.1538578582114737 2.2152937931954080 82 85 94
-0.0332495744556548 0.1902751795574857 1.6620725024970133 122 122 122
-0.5852529842755260 0.3901838118757892 1.6159164183405852 65 73 62
0.8625328354647974 0.4582788768014464 1.4038407600263174 51 50 48
0.6704515682544966 0.4666511830186196 1.3575045332850977 88 68 61
0.0911626274642739 0.4712099118941677 1.3590104508589824 127 131 130
0.5761672379881084 -0.3981828223011082 1.7041961464165030 84 76 73
-0.0323866630136378 -0.0109408657241583 1.6746761247438318 56 52 43
-0.6111506714667575 0.3866438454002802 1.5096107768467419 66 47 43
0.5056513698374594 -0.3596042028106084 1.7116938741639560 54 47 37
0.3705730367362100 -0.2719713555678840 1.6982075607954246 51 42 33
0.3705730367362100 -0.2719713555678840 1.6982075607954246 51 42 33
0.5283771891434468 0.4493413361387601 1.3924992348882423 127 131 132
0.1286585112405750 0.4601415619547773 1.3651473214861356 75 72 67
0.1094667794577185 -0.0985393138522688 1.6690791585274229 54 45 36
-0.5198701094533701 -0.6227738447651063 1.6663701148250791 175 181 197
-0.0637958337304550 0.3469968088610643 2.1499929148674539 52 47 43
0.7412602837916930 0.4679810251321692 1.3660011184080423 102 74 63
-0.2370033004050891 0.2750722743861505 1.6222513075979936 144 143 141
0.6440170343921907 0.4663340810590730 1.3533271788022316 152 130 107
-1.2608463553247902 -0.8747079817113923 2.4963092562591918 250 253 255
0.5933152951978052 0.4691816131242448 1.3559709611306143 83 63 56
0.2675823264303772 0.2143901477787167 1.1453052408617639 39 32 24
0.2244004394709292 0.3624926418660689 2.1646843642745170 72 64 61
0.4061781432602652 0.4798904411380695 1.3752681001145035 50 51 56
0.8472493962938121 0.5265215029036809 1.5361347736693065 161 135 102
0.6849732331135229 0.4700505379386895 1.3386163857153077 53 33 26
-0.0428398772259009 0.4823785625652836 1.3529771712043344 145 141 140
0.5395780827045142 0.4748034494668303 1.3449132352048321 47 32 27
0.1560553605812731 0.3786140929329391 2.1591631435253595 72 64 61
0.7337801653895368 0.4749557190946884 1.3513243983466123 133 112 93
-0.0398668091435838 0.4840431359829591 1.3525369365610829 56 48 46
-0.4744103052004996 0.4807944415988641 1.3395646672525159 107 107 107
0.5505150976792421 0.4764401067951746 1.3410026568608966 56 31 26
0.5731465916091972 0.4771109061091685 1.3438930405874603 174 148 125
-0.1080819618868776 0.4842837824232485 1.3440652773728052 180 175 181
0.5651758989941541 0.3968306260932717 2.1910299577566144 56 47 38
0.4358004523795466 0.3929704306827324 2.1624900477653863 71 63 60
0.4369428501615219 0.3964740270444645 2.1835952877739668 71 63 60
0.6042868970848053 0.4771010966828323 1.3369257340885154 48 27 24
-2.7459872955358997 -1.3441299781572589 4.7618331974872499 247 255 255
0.6042868970848053 0.4771010966828323 1.3369257340885154 48 27 24
-0.5974629059708322 -0.5961536141635180 1.6762569919166803 254 255 253
-2.1851607293571051 -1.5041503861123131 3.9707235212520673 165 176 221
0.6888378158210527 0.4787081658238074 1.3257099128015815 67 48 34
-0.5621337440501788 0.3081105790347768 1.6076296893901096 37 30 24
0.5037735852375808 0.4122952099931765 2.1785480165747906 78 70 67
0.5037735852375808 0.4122952099931765 2.1785480165747906 78 70 67
0.3291288088323731 0.4118539232599911 2.1671065413984243 91 80 74
-1.1753477670248835 -0.5126807605349255 2.2384425800511716 243 252 255
0.2577182232335409 0.4123232312276565 2.1642384683138620 54 44 35
0.5762541999491553 0.4154649211307204 2.1793448707523018 95 88 82
-0.0731320081839358 0.3208194791461908 1.6160139315275597 122 115 109
-1.1973759635036967 -0.4950510394779619 2.3119657622752925 245 255 255
-0.5803336019636595 -0.4722935659039804 1.5562135849767080 251 255 255
0.9694082425877710 0.3352618529371437 1.6768346513905668 62 60 61
0.9694082425877710 0.3352618529371437 1.6768346513905668 62 60 61
-0.6357026262758400 -0.2982887763268417 1.5505030415490191 124 138 173
0.1607716098812525 0.4293744195609184 2.1570416062934727 61 47 46
-0.5622148231830114 0.3776982139724959 1.6014324844127998 129 128 126
-3.0330350366192973 -0.9401128881337365 5.2161268773825364 109 119 154
-0.5622550977677984 0.3575470393355631 1.6039763972760539 44 34 32
-0.9370985019921494 -0.2807161746891775 1.8617014586587450 94 102 125
-2.4472689655869853 -1.1658917718349318 4.2368638756279937 250 255 255
-0.9290237098149683 -0.4398869126886165 1.9192940966393368 195 207 233
-0.5299121028510955 0.4352474781194114 1.5909602969582326 126 121 118
-0.5946063577014691 -0.1737426085618335 1.4879004158480282 235 249 255
-0.2160048733641683 0.3901654135883175 1.6154286509244782 138 134 131
-0.3678071719096551 0.3767574666235787 1.6148525147867598 148 142 142
-0.6550479804883690 -0.3407295021596339 1.5950648259354214 252 255 255
-0.2670517668628130 0.3913417645566912 1.6136150941365697 128 124 121
-1.5212648135398246 -0.9262651553359610 2.9962960780110848 251 255 255
-0.5112827969261287 -0.1616072042964974 1.4961813745634518 244 255 255
-0.9409396044102101 0.6780095058102877 2.9108322910369826 71 66 63
-0.9409396044102101 0.6780095058102877 2.9108322910369826 71 66 63
-0.3107375090949407 0.4234005240115931 1.6144870953426105 38 32 32
0.1053531917706650 0.3384555278032093 1.4255315996629054 36 29 23
-0.0403796903893187 0.2766784739131242 1.0301268671774397 127 122 119
-0.0623613152893569 0.4183181260860211 1.6263656160661712 117 107 95
-0.6241502457058502 -0.2830498010120863 1.6086431207900138 74 80 106
-0.5419873752630211 -0.0858396376341750 1.5694409996703609 63 67 79
-0.3890155872718744 0.4203709119895179 1.6083017815602718 142 137 134
-0.4083802078677459 0.4162613716987904 1.5921262962314155 142 138 135
-0.6374979323888776 -0.2362639381611728 1.4750990049551882 234 253 255
-0.6568762222922226 0.4457458222679128 1.6578203112770185 33 32 40
-0.5957703327896297 -0.2912641551418995 1.5351548167111229 247 255 255
-0.6329640516548772 -0.2499378660788570 1.6569538797848249 81 88 114
0.3063876317482033 0.4481321715090435 1.6420452172825337 48 44 43
0.8984070513543002 0.4482755236754700 1.6333549346807126 35 38 43
-1.4124922089165484 -0.4047867832432517 2.6708262645209380 97 110 142
-0.0744151319879730 0.4547024182096343 1.6221180209881971 64 58 58
-0.5206864791077317 0.4516362776521696 1.5799248617960429 66 71 77
-0.5206864791077317 0.4516362776521696 1.5799248617960429 66 71 77
-0.8447205460847814 -0.2284098204081087 1.8516783556351368 249 255 255
-0.3348239849248721 0.4597686643367723 1.5975925573453973 45 49 58
-0.3027084937996535 0.4583575310818502 1.5783652320915007 79 83 95
-0.3810135612153184 0.1740067572280938 1.6208634456758788 160 152 139
-0.9589249334775947 -0.2356834400148626 2.0069607113047292 223 239 255
-0.6033816804898917 0.4624165271174584 1.4884513267726858 48 38 46
0.8491619811029688 0.4430996543072117 1.4111163565247891 155 157 152
0.5970763281994304 0.2462666696381978 2.1902487244489355 69 65 62
0.8491619811029688 0.4430996543072117 1.4111163565247891 155 157 152
0.3404491055495663 0.4470797730810990 1.3938645038096662 77 74 69
-0.1370894190218786 0.4626382776281886 1.4368171935885512 62 46 49
0.8162909880270592 0.4474730905903169 1.4034670258213242 175 183 186
-0.5421592938646432 0.2033882616946837 1.6101131064612544 135 133 134
-0.3644646485754434 -0.0879678044954450 1.1899235800965797 240 255 255
-0.5359526365646519 0.2031870466304614 1.6116956584027846 135 133 136
0.5562457053455242 0.4399311082513623 1.3683186091292265 180 180 178
-1.4615347484612253 -0.4051801082568049 2.6678063765334326 91 104 136
0.5557925164197713 0.4476126471585933 1.3899097030992651 174 176 171
-0.3451970999407468 -0.1395980872070174 1.1752316689603091 224 236 255
0.3119787019444088 0.4472249167435084 1.3760882761539894 146 151 147
0.2037914820527759 0.4482865986503488 1.3698537224821985 152 154 149
0.7949357206577153 0.4514795720005026 1.3989686307612303 136 144 147
-0.5340362789776567 -0.0728807761646280 1.3996148950500826 59 63 75
0.2353922645738892 0.4529833298016079 1.3696939310202976 104 108 109
0.0869030756240888 0.4535311094588387 1.3644180630399878 152 155 160
-0.2381684481423531 0.2216606311417168 1.6240223713173554 77 73 74
0.7942951286379981 0.4595691211458084 1.3991708305331620 57 55 56
-0.2546064388626000 0.4519134166803705 1.3503028717063663 67 72 78
-0.3876967554052899 0.2223670094672644 1.6171311984113614 76 74 75
0.2139172353009335 0.4573372799656759 1.3682126212228061 62 69 77
0.8352535023414603 0.4607699727548561 1.4004989909422594 46 51 55
-0.5076946333353033 0.4523059480528914 1.3479275544241875 169 168 164
0.6132500941862509 0.4598548987654726 1.3857124942247832 52 45 52
0.8935504387862273 0.2451151642141483 1.6687008875451963 148 144 143
0.6621028438915563 0.4576295226054398 1.3797768851932239 129 106 92
0.6621028438915563 0.4576295226054398 1.3797768851932239 129 106 92
-0.4286453079305586 0.4533007787093498 1.3445166304145784 176 184 203
0.0160109409687817 0.4579808416249340 1.3577108597467149 48 49 51
0.5276882036815281 0.4617671862476729 1.3790725169478117 175 148 129
0.7661280367662960 0.4622643757887747 1.3899980005954191 64 45 39
-0.2838574866878752 0.4580761614984395 1.3481172364688456 159 163 166
0.5664088177714194 0.4634011605058209 1.3786618146922887 225 226 228
0.7168653233509084 0.4619157816903030 1.3758551335513660 60 37 29
-0.4578113403181898 0.4584804731356389 1.3398002758309251 109 106 101
0.1141223732113231 0.4656601211014863 1.3638142222470648 57 62 65
0.6129220603559741 0.4631021249211166 1.3721941469994203 61 39 28
0.8118880023352792 0.4705172353756288 1.3997031666472051 81 82 77
-0.3373248712688948 0.4610175371227345 1.3442081562514478 144 141 136
0.4003858581965408 0.3296162177694995 2.1753688955083788 60 51 42
0.5213481228838809 0.4645638670479095 1.3649949367584102 59 32 21
0.3820876476586429 0.4701689255885353 1.3759348536097458 114 114 112
-0.0425580567840873 0.2577893184003043 1.6332337520894393 118 109 100
0.3019819485927285 0.3295411861068425 2.1689485740639123 64 54 44
0.5206368185390403 0.4670847824469892 1.3654626789730466 129 103 88
0.5262069320020452 0.4667805190770135 1.3650745639175430 54 26 15
0.6144706622039140 0.4655043372026322 1.3639070739152888 34 18 5
-1.9013332858204441 0.3263190041847705 3.5267473790230097 53 52 57
0.6622322083190179 0.2425597496156099 2.1922104088225853 59 62 71
0.7455371956251559 0.4660212164707169 1.3574626871901148 41 21 12
0.3471260797912546 0.4772486551514526 1.3751683662188858 98 100 99
0.4319307990953631 0.4778843981653598 1.3801652777939375 54 53 51
0.7537260276090411 0.4680054881911192 1.3601439357619745 123 96 85
0.4858526160535474 0.4722214476722814 1.3616940535044846 135 112 98
0.5291171608110282 0.4689176537620320 1.3532744479951559 54 34 27
0.7131358109708078 0.4647227318481770 1.3468899041136901 127 102 82
-0.0417539953951562 0.2089335580603267 1.6336533516064791 157 153 152
-0.1084880664972321 0.4767892237556536 1.3531282494952084 48 47 42
0.4743764371687837 0.3609798500093374 2.1754179753485570 87 79 76
0.5992064645132410 0.3627701202379203 2.1836650317483008 75 70 67
0.3490731241446692 0.2809021106650874 2.1855570776623594 48 41 35
0.4599723710087729 0.4808182325174431 1.3695489071243214 45 27 23
0.2533112578446907 0.3633792030198084 2.1682995161583016 76 66 64
0.7199411155169346 0.4700627269914859 1.3461784941027077 171 144 117
-0.0426184841757325 0.2847427795066868 1.6305674876821423 122 114 103
0.6828391746758246 0.4695868822353554 1.3400936012639606 159 133 106
0.0570171235006620 0.3636083996116529 2.1574733345623014 62 57 54
0.7429555684164781 0.4725282933644078 1.3465740146692964 33 13 2
-0.2422612160882766 0.2859434124366333 1.6201565120599193 136 135 133
0.5121160412244272 0.4750993672592855 1.3441588947288290 129 102 81
0.7771814755077245 0.4758449536502316 1.3547717375935453 57 33 23
0.7771814755077245 0.4758449536502316 1.3547717375935453 57 33 23
0.6112358580076395 0.4741493919077481 1.3407452831371887 45 25 18
0.6034089249776076 0.4750529895650453 1.3394164072010806 101 77 67
0.6445014002851656 0.4739786477597058 1.3366554054003112 47 23 19
0.4268546485286842 0.3794009650591266 2.1755721006780790 79 69 67
-0.4027356203956118 0.4816969939645477 1.3366647173088833 52 32 33
0.7964677089554605 0.4799433781925345 1.3550223772392884 111 89 78
0.4802477085457024 0.4818748023275793 1.3447436303599016 43 24 20
-0.1611634962851362 0.2690168846036715 1.8857165498003639 45 38 32
0.1330128434423330 0.3798021298931645 2.1604972596252647 73 65 62
0.7117498398301318 0.4770229416205695 1.3340872438622451 153 132 111
0.7117498398301318 0.4770229416205695 1.3340872438622451 153 132 111
0.5661553450131996 0.4793614463763951 1.3335651726245610 36 18 14
0.6206717669404688 0.4770731372003115 1.3294426169725502 97 70 59
0.6569094613326815 0.4785555941440567 1.3317283145070469 36 20 20
0.6218528768819376 0.4777314597207710 1.3243044734481566 105 75 67
-0.1396580065701555 0.2423029152769574 1.6281648941538456 52 51 49
-0.1396580065701555 0.2423029152769574 1.6281648941538456 52 51 49
0.6431592503007952 0.4789476177084149 1.3277655275970128 156 126 92
0.4498241891376001 0.3959120050585309 2.1761613841643075 79 69 67
0.2524959025984422 0.3964874175876396 2.1666522028509578 76 66 64
-0.3507382818088058 0.4848388183886891 1.3116798489695376 140 137 130
0.1058214944322815 0.3962240879655488 2.1584540709170823 72 64 61
0.2050728361358588 0.3966580971721105 2.1623675784912413 70 62 59
-0.1142594745412282 0.2257778753092515 1.6309271748304406 54 54 54
0.1699066617217300 0.4783150072374706 1.2626522044083712 65 66 68
0.4609709984213398 0.3290706588484178 2.1792395214020202 56 47 38
0.4609709984213398 0.3290706588484178 2.1792395214020202 56 47 38
0.4674965265914726 0.3291309947062442 2.1785132855786737 69 64 61
-0.0633767814422353 0.1521887579549409 1.0265166110640496 142 141 139
-0.3078512166681673 0.2555416875220947 1.6205580543540070 44 37 29
-0.3078512166681673 0.2555416875220947 1.6205580543540070 44 37 29
0.5230840324187785 0.2798721409838962 2.1844426004799180 65 57 55
-0.2898280510265128 0.3216477477083396 1.6153050221817906 63 59 58
-1.6948599077007311 -1.3996215421444960 3.2839857415910476 254 254 254
0.5232698293984956 0.4270788410863420 2.1761830951347867 71 64 58
0.1002675443829762 0.4288816353195137 2.1531217075823497 56 48 45
-0.4140678353415267 0.3392803915868043 1.6091387552339338 63 57 57
-0.4617464961487616 0.2397785362142600 1.6119439002775438 83 81 82
-0.4907808404067960 0.3563493413474937 1.6056165775823030 55 51 52
-0.3191274770642248 0.3591745434845661 1.6157999267959842 133 127 127
-0.4628478173183316 0.3607431855178896 1.6089273693880262 129 125 122
-0.1114891424284459 0.3673162007153700 1.6243786281872317 126 118 107
0.8904965094461368 0.4034031282452616 1.7804851939839050 64 59 56
-0.4860456565183083 0.2560571798570940 1.6076599332715298 70 69 67
-0.4415001047224303 0.3739319435603380 1.6081816286768262 56 51 48
-0.0409112370136507 0.2714690428787425 1.6346906173303573 48 39 30
-0.2127156384001532 0.2712067457407395 1.6212643378201830 55 55 53
-0.8790903415781889 0.4685194764207252 1.9935159203044290 207 199 178
-0.2403725596021445 0.2725107650053168 1.6226157193976543 70 66 67
-0.1632890756239480 0.4037425161343161 1.6189948845649913 62 57 54
-0.4123652036145536 0.4028367064220387 1.6073357367065257 139 134 131
-0.2889305318846701 0.2887516979429014 1.6180900492562125 74 73 71
-0.3381483504459400 0.2886987332993299 1.6143763354273020 67 63 62
-0.4949239947643239 0.4198231576355857 1.6019199757954816 105 95 86
-0.5457901838848974 0.4210438306496331 1.6000705760681098 97 87 78
-0.3173036849085623 0.4263863534849197 1.6096967144345329 129 124 121
0.8987766119104522 0.4354757740510771 1.6672968176778706 114 110 107
-0.3142074209404303 0.4304099716635642 1.6117093298317233 39 33 35
-0.3142074209404303 0.4304099716635642 1.6117093298317233 39 33 35
-0.4157848968790713 0.4304890852848112 1.6076077923227963 52 46 46
-0.3134594269001426 0.3052908090510526 1.6156434907133870 64 60 59
0.3023763530456053 0.4112030925670151 2.1632830719203691 73 68 64
0.0068895398627442 0.4122401630920334 2.1506468910871792 62 57 54
0.9278221074584704 0.4585865211290439 1.6613709213066616 168 142 115
-0.3404701865200926 0.3220836206289733 1.6139245245458891 56 52 51
-0.2759915029164818 0.4562481105005091 1.5983400445643978 189 192 197
0.1767054203416192 0.4290935578305968 2.1558007812910915 67 59 57
0.8742127977636811 0.4477209565066909 1.4056987422989304 170 179 184
-0.2403891308640760 0.3537199437911967 1.6168511541858710 66 60 60
0.0326672120054788 0.4514526334966025 1.3615937125278799 51 55 58
0.8546127628095335 0.4584833912802037 1.4007882361672541 90 91 93
-0.4121909960534770 0.3611984558168490 1.6110977627009992 133 128 125
-0.1903160970484380 0.3710487517764558 1.6203369650117860 67 61 61
0.4292587917813623 0.4642949870507224 1.3786193852796758 123 128 131
0.4292587917813623 0.4642949870507224 1.3786193852796758 123 128 131
-0.4368514605829921 0.4572157133995480 1.3409555872798338 69 68 74
0.5238463913604364 0.4650015064300020 1.3791492270206738 59 36 28
-0.2896516439069275 0.3880402081235501 1.6133654795688086 42 33 28
-0.4425259455412717 0.4071502994754162 1.6076343514902300 41 32 25
-0.1683907229257929 0.4252079170352419 1.6195038160410906 139 131 128
0.9470297181014821 0.4353989296216911 1.6716006841965672 131 127 124
-0.1925546768870069 0.4389137152383244 1.6189813942901747 56 48 45
0.6871562716120863 0.4583469612912396 1.3853964163971138 141 115 100
0.6400040196188921 0.4637486999864271 1.3732561171481061 35 25 24
0.4129346069377817 0.4490340251631420 1.3826317258465093 144 153 158
0.7107881675349950 0.4681626372663226 1.3493888841607051 42 23 17
0.4504654618523217 0.4802357347818006 1.3739359425874367 52 37 34
0.5978143884298851 0.4747156705710944 1.3455541240145161 41 22 18
0.6518849789503353 0.4740064881726546 1.3401495390142588 51 30 27
-0.1480364023594507 0.4839655438326170 1.3449498628956846 95 82 65
-0.4543810536249273 0.4573709560507364 1.5950870260889902 51 52 57
0.3410393310067823 0.4473711739963529 1.3762951816210478 171 177 175
0.5484794904513425 0.4629320666939853 1.3461511109559834 65 43 30
0.2789121023083451 0.4527728654335234 1.3744139305201262 58 53 50
0.2847916670081262 0.4518870054051882 1.3721559852104985 51 51 51
0.7137029473557980 0.4719190298768650 1.3440224844334161 45 30 27
0.7137029473557980 0.4719190298768650 1.3440224844334161 45 30 27
0.6288537226073790 0.4568181404025635 1.3888667751457136 52 55 60
-0.6763058790393855 -0.4377699303490173 1.6009208766037268 159 165 201
-0.4673036934148413 0.4519231170920579 1.3437253158930107 177 186 191
-2.1162464668716710 -1.0925922997965796 3.9161427735627004 232 243 255
0.3815887257628179 0.4758345295817440 1.3759720984300090 136 137 132
0.4646481881123710 0.4789347939842056 1.3670534475679057 51 32 28
-0.6097177391916858 -0.4435464518003588 1.6222482877173774 252 255 255
-2.1240665446121803 -0.6343466362094324 3.7287579393570613 100 111 143
-0.5494992518703061 -0.1838595119699759 1.6144931914437741 92 100 123
-0.6725939717919019 -0.3664025131065155 1.5631827287987483 248 255 255
-0.8126244602648167 -0.3769696946013599 1.8721389771626078 102 111 142
-0.7130764130526569 -0.1642238098483930 1.6617440010515505 183 183 175
-0.6538306432831191 -0.1423491519218047 1.6127035481163645 180 192 216
0.9045802349475577 0.2376339137588823 1.6559666956809151 149 148 146
1.2189359302204372 0.3247678255524294 2.3741801762228603 144 142 143
-0.4376554802607991 -0.2226523053502409 1.3618045720352505 248 254 255
0.9696087256353071 0.2992183687162023 1.6805224425626695 62 60 61
-0.0563017367524917 0.4240295693384633 1.9927304521929237 55 50 47
-0.6667227816594397 0.4449539105470726 1.6395086950482169 42 40 43
-0.3712471262863215 0.3636530361425356 1.6075943171115246 141 137 136
0.7289971123920269 0.1650438053601206 1.1027283647226040 148 148 148
0.7545870563187261 0.1631237285497547 1.0911783771958752 149 145 146
-0.3174096539642647 0.3816857647414361 1.6157983093178994 113 104 95
0.9730792864607959 0.2728577175825132 1.6746271390939744 149 148 146
0.9232930655538713 0.2728677963173901 1.6717260839581187 143 142 140
-0.3358438226851838 0.4157691910331202 1.6155401367509314 113 100 92
-0.4351402913295013 0.4153039076839775 1.6084851984542499 137 129 126
-0.2142987111517551 0.4458201516315697 1.6152203197749107 110 98 84
-0.3865370934459124 0.4574480494612830 1.5985973863227787 48 46 51
-0.1376231750115816 0.4563262478964473 1.3541293712604976 55 55 53
0.8027524449851748 0.4346475715249208 1.2260197445140115 117 94 88
-0.5703483313064398 0.2417062043877998 1.6131176124391362 44 40 39
-0.5036123669856100 0.4488364437522694 1.6005349163693237 88 78 69
-0.7265529890524970 -0.6739877474951965 1.8732542030350212 131 143 183
0.8291695515760036 0.4462596216726736 1.4127117895984260 123 127 130
-0.8061466785272794 -0.3620101272073519 1.8988442598510282 126 136 172
0.6850413598278433 0.4688946934489933 1.3527316113224626 118 91 64
0.6489096306627046 0.4748984072483755 1.3325471719839432 49 34 29
-0.5246392972404432 -0.1809198499211929 1.4495336762216480 109 120 148
0.2321435026217009 0.5968364836230409 1.7675059403701692 55 51 48
-0.0265474682088116 -0.0083176035645906 1.6771801249010909 65 59 59
-0.6506695483965663 0.4283053757699081 1.4304303708044295 158 158 168
-0.5491840424448566 0.1441514669926511 1.6350855883428002 194 194 192
-0.0283020884358847 -0.6470298861041673 1.6837551682150551 202 202 200
0.4732272186624338 0.4182432244642665 2.1745772472580929 79 71 68
0.8561348250481183 0.4157144133432000 2.1890855337990871 101 101 109
0.4066398163087693 -0.2807581046517454 1.6830329663649677 198 197 193
0.4003889572211711 -0.2795674244840999 1.6815031643339289 188 187 183
0.4184928207153526 -0.2773529983942587 1.6818043747638176 78 74 71
0.8104006094343994 -0.4545786004556768 1.7132321878110222 214 213 208
0.4682089023785896 0.4289211089686787 2.1744039885522293 58 49 44
-0.4687499663905392 -0.2615991642368939 1.4569720974140661 247 255 255
-0.1023166205971675 0.3767202747190576 1.8529335945500074 57 49 46
-0.0442339551330685 0.3586097389505282 1.7502134184159281 69 62 56
-0.0665514537304283 0.3342468442331649 1.6264606969055631 147 142 139
-0.2475776203454517 0.3353817941021612 1.6185634470126653 169 165 162
-0.2818958545178933 -0.3051478213409115 1.1230274839990506 172 177 219
-0.5526988552034034 -0.2672481476653485 1.5887073741477449 249 255 255
-0.5886784831793791 -0.4597950795013203 1.5416467414919248 158 164 216
-1.9416590197440911 -0.4875989845657626 2.3765058451584822 99 107 128
0.6296625133774683 -0.4106828404895954 1.7075026389799581 89 84 78
0.5931207285732847 -0.4103477480447987 1.6979848334133849 203 200 193
-0.4918608519945395 -0.3796261238297838 1.3710464911053957 251 255 255
-0.3154033070701200 0.3600322527884263 1.6150099346083318 62 56 56
-0.3154033070701200 0.3600322527884263 1.6150099346083318 62 56 56
-4.3323203598107822 1.8306290607212634 8.2144925125035932 59 55 52
-0.3588178921586672 -0.3285013801270784 1.2947893879352355 164 171 225
-0.2549976307574805 -0.2773029887631684 1.1447703433073064 153 163 214
-0.2426156731229357 0.3739988770719743 1.6166649854401138 131 126 123
0.5602403005725347 -0.3655616387711347 1.6984758659832637 87 82 78
-0.0409864669943275 0.3873775238303665 1.6489631763366535 44 39 35
-0.5052274542094023 -0.3700945050172653 1.5031956840658420 248 255 255
-0.1893129216642765 -0.0685434383731277 1.0697209888547583 161 165 194
0.7326736506973738 -0.4556630278565348 1.7101159810225615 191 192 186
0.0982512677032995 -0.1096959582932185 1.6599376650190174 205 204 199
0.1390625388779486 -0.1064526523265093 1.6620273586709287 91 86 80
-0.8434264707327358 -0.4519957477253386 1.8065848339919484 252 255 255
0.4538305948473116 -0.3222356950690991 1.6851007120308001 198 199 193
-0.3106999651505998 0.4234909682928622 1.6146612293569615 38 32 32
-0.0884302620360490 0.2791753517789389 1.1241589316505245 138 119 113
-0.2565951468297705 -0.2962196964142182 1.6522889213084975 139 130 115
-0.0886110827847467 -0.0175485205894622 1.6475521594894948 232 231 226
-0.7968463466598956 0.7132975577728800 2.6158666036171194 141 133 130
-0.7131621374143065 -0.4957084358467519 1.6835593917072702 245 255 255
-0.5548767489806804 0.4419817605654612 1.5998788657845742 35 30 27
-0.6282808716644805 0.4476250107859112 1.5966762340998761 80 84 95
-0.2043328991134726 0.1750464181007488 1.6300727738396532 195 192 183
-0.2286156856990245 0.1750301081618846 1.6276457272236766 204 203 198
-0.5058845676102010 -0.2952118240827009 1.5170274954002256 92 101 132
-0.2262429686876437 -0.2360876782106222 1.1033121933089600 251 255 255
0.4511044388908501 0.2459180982343750 2.1805893122088538 69 64 61
0.5187473808197245 0.1754177103226897 1.4829636978822054 69 64 61
0.4595775952537985 0.4617589150051861 1.6742592336425999 70 61 54
0.5231478650139917 0.2467933470648832 2.1838758200037134 77 69 67
-0.3335857191787538 0.4581997787961958 1.6001700824805496 228 235 245
-0.3335857191787538 0.4581997787961958 1.6001700824805496 228 235 245
-0.3328625445440137 -0.2581777176413504 1.2432788147733320 245 249 255
-0.5234655857179971 0.4544877196923519 1.5660501085381160 35 35 43
0.4244869549374517 0.2625881896905020 2.1784368594783881 73 68 64
-0.6211777017207635 0.4496573556686921 1.5360801987832498 86 90 101
0.5485129062631005 0.2630894675017610 2.1829666873031046 82 74 71
-0.3024381840554510 0.4585382354928049 1.5776797598318086 79 83 95
-0.5373217597853183 -0.2382975627010789 1.4275491719841302 245 255 255
-0.3671354539897306 -0.2373938938604919 1.2209496184751703 252 255 255
0.8085203969027549 0.4486668207529644 1.5978356284041013 75 70 67
0.5469701097224282 0.2787467446848224 2.1829930354349312 77 72 68
0.8085203969027549 0.4486668207529644 1.5978356284041013 75 70 67
0.3602934495431612 -0.2347380575492293 1.6806692088894242 72 69 64
-0.0465087401110969 0.2279813832216838 1.7539178151423318 62 57 53
0.3331210496441298 -0.2341888070431105 1.6763766720692703 73 69 66
0.2059816864705115 0.2789511839739445 2.1647466105579767 68 63 60
0.2788156958882771 0.2798105102899705 2.1713826216238656 75 65 63
0.3274507082249628 0.2797220256657539 2.1719394104614085 77 67 65
0.4330077767691879 0.4473743843956849 1.4813759081187841 62 54 51
0.2945608330919066 -0.2289467528386722 1.6713059415984923 206 205 200
0.1860020895595661 0.4536428606732326 1.6388020090906315 53 39 26
0.1860020895595661 0.4536428606732326 1.6388020090906315 53 39 26
