ply
format ascii 1.0
element vertex 697
property double x
property double y
property double z
property uchar red
property uchar green
property uchar blue
end_header
-0.1897601734420653 0.4310024117461962 1.5951081962722231 56 48 45
0.6759561323811577 0.4501312005047343 1.3652405293290579 141 115 100
0.6295539985459077 0.4554468709163379 1.3532933269379599 35 25 24
0.4060969730381291 0.4409653197002590 1.3625194222182118 144 153 158
0.6992120993584787 0.4597910004489375 1.3298059336089927 42 23 17
0.4430306499620093 0.4716708475093218 1.3539621632909897 52 37 34
0.5880355413943277 0.4662393410335334 1.3260320522166658 41 22 18
0.6412459617441437 0.4655416884547791 1.3207135216950243 51 30 27
-0.1459499217604466 0.4753390116761532 1.3254363937540135 95 82 65
-0.4474213062057263 0.4491650601518203 1.5715936519900335 51 52 57
0.3353454569706653 0.4393286577251438 1.3562835729446392 171 177 175
0.5394855176330351 0.4546429546204742 1.3266193091603082 65 43 30
0.2742065800092929 0.4446440609160871 1.3544318534330282 58 53 50
0.2799925962797429 0.4437724373368711 1.3522101644382765 51 51 51
0.7020804923151059 0.4634876605454103 1.3245248955935505 45 30 27
0.7020804923151059 0.4634876605454103 1.3245248955935505 45 30 27
0.6185810987033257 0.4486264565226081 1.3686556226661477 52 55 60
-0.6658118884228045 -0.4317363454407412 1.5773299902845956 159 165 201
-0.4601379919034067 0.4438050192357132 1.3242306895897651 177 186 191
-2.0828451259465885 -1.0761579726078301 3.8557140422718064 232 243 255
0.3752496551139617 0.4673393737973077 1.3559658273844768 136 137 132
0.4569877631742271 0.4703906843772552 1.3471891472934441 51 32 28
-0.6002832118537169 -0.4374208687112187 1.5983183886801906 252 255 255
-2.0905429928651142 -0.6252017619724584 3.6713132904472028 100 111 143
-0.5410235698876386 -0.1818648179669712 1.5906876612078391 92 100 123
-0.6621593766893401 -0.3615041379998872 1.5401927093370789 248 255 255
-0.7999625606046638 -0.3719052324410770 1.8442336522078684 102 111 142
-0.7019987774290096 -0.1625424275166023 1.6371869441133338 183 183 175
-0.6436954852432486 -0.1410152796120864 1.5889267625265382 180 192 216
0.8899216884918484 0.2329289732944686 1.6315055911485286 149 148 146
1.1992749758963746 0.3186745854569594 2.3382939528782618 144 142 143
-0.4309586782091051 -0.2200388579019033 1.3420191263683641 248 254 255
0.9539151504715594 0.2935337621591498 1.6556704943960079 62 60 61
-0.0556752632304943 0.4163538316924141 1.9629115043868899 55 50 47
-0.6563850306255060 0.4369444821495777 1.6153083070199725 42 40 43
-0.3656095821212568 0.3569383468915264 1.5839016904421059 141 137 136
0.7171328843087897 0.1614955449684829 1.0870678054085352 148 148 148
0.7423156904863804 0.1596061556785231 1.0757014468330615 149 145 146
-0.3126286697335853 0.3746843844030625 1.5919753348604067 113 104 95
0.9573306009199879 0.2675925186144469 1.6498688246377025 149 148 146
0.9083363913739524 0.2676022306348529 1.6470137413036459 143 142 140
-0.3307697106692312 0.4082255176661496 1.5917213953413711 113 100 92
-0.4284865095347111 0.4077672619675898 1.5847785407997563 137 129 126
-0.2111583220754335 0.4377989111147251 1.5914069782789746 110 98 84
-0.3806566598580453 0.4492411911187336 1.5750482694637697 48 46 51
-0.1357022343198745 0.4481394068410233 1.3344697404632924 55 55 53
0.7897136276788760 0.4268100244189670 1.2083992641353221 117 94 88
-0.5615428754987615 0.2369306612264485 1.5893362350557223 44 40 39
-0.4958694275167524 0.4407661052784739 1.5769548082621616 88 78 69
-0.7152590925745019 -0.6641977783024897 1.8453297398973185 131 143 183
0.8157102049713518 0.4382366069658134 1.3921215037675547 123 127 130
-0.7935879969741991 -0.3571837687003354 1.8705142516941380 126 136 172
0.6738748759572468 0.4605112885410116 1.3330954472309362 118 91 64
0.6383179491794176 0.4664194351838943 1.3132320776920432 49 34 29
-0.5165590274253553 -0.1789710833757735 1.4283527184947524 109 120 148
0.2281808328783452 0.5864139097020874 1.7412713099894208 55 51 48
-0.0263920858265110 -0.0091137116458829 1.6523790541537817 65 59 59
-0.6405867926841277 0.4205618446033964 1.4095560339691831 158 158 168
-0.5407147805731750 0.1409278453018245 1.6109541316163267 194 194 192
-0.0281162555181858 -0.6376651075081827 1.6588466503481776 202 202 200
0.4654294273000145 0.4106608697438693 2.1418662091134490 79 71 68
0.8422455246439243 0.4081737598646529 2.1561440827068150 101 101 109
0.3999048903387805 -0.2772183627764633 1.6581382838042098 198 197 193
0.3937534844369971 -0.2760466238702539 1.6566327375267969 188 187 183
0.4115693187976519 -0.2738673729744134 1.6569292735191141 78 74 71
0.7972431257641127 -0.4482720929058235 1.6878567234400532 214 213 208
0.4604909009747002 0.4211688694186933 2.1416957704066855 58 49 44
-0.4615585317217950 -0.2583667276416646 1.4356725460819739 247 255 255
-0.1009577449152780 0.3697976460658913 1.8253384123947411 57 49 46
-0.0437988721100512 0.3519759447480093 1.7242523622738850 69 62 56
-0.0657610660460996 0.3280011226443683 1.6024682322357338 147 142 139
-0.2439073743249457 0.3291173135905930 1.5946963657706765 169 165 162
-0.2776763049610833 -0.3012202415331883 1.1070405087447401 172 177 219
-0.5441720530897993 -0.2639267997677196 1.5653119352226481 249 255 255
-0.5795784846220291 -0.4534105411568735 1.5189990463469485 158 164 216
-1.9110359117176641 -0.4807815335475024 2.3405745508272124 99 107 128
0.6193801364045255 -0.4050753977374565 1.6822183787601719 89 84 78
0.5834196883129803 -0.4047457458731407 1.6728519524515848 203 200 193
-0.4843010696547548 -0.3745157125139447 1.3511132007692370 251 255 255
-0.3106541515641842 0.3533753592983072 1.5911994027509433 62 56 56
-0.3106541515641842 0.3533753592983072 1.5911994027509433 62 56 56
-4.2636822516935000 1.8005292284039691 8.0856934966757308 59 55 52
-0.3533748153883859 -0.3242034213759321 1.2760697653921060 164 171 225
-0.2512061124546806 -0.2738183609962090 1.1284376126850686 153 163 214
-0.2390245150994349 0.3671200844813576 1.5928282883744664 131 126 123
0.5510621534659915 -0.3606722487627881 1.6733353313194235 87 82 78
-0.0406030253424308 0.3802865696084228 1.6246130097723883 44 39 35
-0.4974553061030541 -0.3651364273598869 1.4811601842220175 248 255 255
-0.1865671259756809 -0.0683792539121353 1.0545832967508622 161 165 194
0.7207526998528347 -0.4493395769729628 1.6847899889478177 191 192 186
0.0964216786386675 -0.1088787022706465 1.6354107382898566 205 204 199
0.1365836739355200 -0.1056868390066823 1.6374672898859743 91 86 80
-0.8302741638448332 -0.4457375529044842 1.7797219903862105 252 255 255
0.4463451021443203 -0.3180359288269918 1.6601730183691448 198 199 193
-0.3060258873769844 0.4158245614853929 1.5908565477537790 38 32 32
-0.0872908715778880 0.2738080085051294 1.1081570304562274 138 119 113
-0.2527788659329226 -0.2924365412162965 1.6278822906328085 139 130 115
-0.0874683506858317 -0.0181979000019243 1.6232224704778506 232 231 226
-0.7844409487259861 0.7010140263887396 2.5761348221237013 141 133 130
-0.7020818444942883 -0.4887537489794720 1.6586537369067167 245 255 255
-0.5463180456187737 0.4340202124178570 1.5763089561366639 35 30 27
-0.6185546272749853 0.4395734500629864 1.5731573216197194 80 84 95
-0.2013499704339329 0.1713327540249631 1.6060218991698627 195 192 183
-0.2252464511300167 0.1713166155841183 1.6036334289661367 204 203 198
-0.4981023289680958 -0.2914450981538482 1.4947723498877215 92 101 132
-0.2229090167532972 -0.2332584174928745 1.0876392505361017 251 255 255
0.4436592848275058 0.2410770630074742 2.1477818156674151 69 64 61
0.5102274048466898 0.1717017914425867 1.4612541300501394 69 64 61
0.4519974834031106 0.4534865867720278 1.6495076833512206 70 61 54
0.5145566013106897 0.2419386658356627 2.1510161325657648 77 69 67
-0.3285476889090020 0.4499811829004321 1.5765960681368716 228 235 245
-0.3285476889090020 0.4499811829004321 1.5765960681368716 228 235 245
-0.3278325535960775 -0.2549981376797740 1.2253789708604013 245 249 255
-0.5154067880622022 0.4463275598206936 1.5430186023814700 35 35 43
0.4174651807277338 0.2574818586598762 2.1456636377392697 73 68 64
-0.6115643705982357 0.4415737748343349 1.5135252895880138 86 90 101
0.5395180589237731 0.2579756463927211 2.1501215662254025 82 74 71
-0.2978956289652128 0.4503144866628347 1.5544635725127895 79 83 95
-0.5290394146891957 -0.2354359389599688 1.4067176231953460 245 255 255
-0.3615601711566914 -0.2345449570930825 1.2034049519298116 252 255 255
0.7953892856326423 0.4406045582490447 1.5743002961256471 75 70 67
0.5379997416932076 0.2733838336226553 2.1501475686050475 77 72 68
0.7953892856326423 0.4406045582490447 1.5743002961256471 75 70 67
0.3542956373708932 -0.2319306030292735 1.6558122854725246 72 69 64
-0.0460369432675362 0.2234256656252385 1.7278972198121174 62 57 53
0.3275555175631854 -0.2313901780520454 1.6515879871132682 73 69 66
0.2024359527116532 0.2735837121610142 2.1321909433621538 68 63 60
0.2741112718447544 0.2744296343149107 2.1387214907834275 75 65 63
0.3219725717627983 0.2743427546858246 2.1392694969602259 77 67 65
0.4258506772478985 0.4393316965232687 1.4596927479618675 62 54 51
0.2896087153659316 -0.2262316547986718 1.6465979133213944 206 205 200
0.1827742298882995 0.4454987014745748 1.6146141285597708 53 39 26
0.1827742298882995 0.4454987014745748 1.6146141285597708 53 39 26
-0.2977764864255745 0.4416802461465665 1.3425871368119280 183 182 177
-0.0620454979216878 0.4396640987420098 1.3489568726167287 165 170 174
0.3022047775766135 0.4391950937191849 1.3794876178542350 236 249 255
-1.1361992979913145 -0.3955380523038688 2.3922035042774703 111 122 167
-0.0603935240385226 0.2210503971626720 1.6107087939434130 150 146 145
-0.0936827679837524 0.4426906864841906 1.3474592998644845 111 121 131
0.7343092273136763 0.1710111697231658 1.2063497717750453 53 52 50
0.0755729895036734 0.4410348431003738 1.3531111510350848 76 72 71
-0.7734894612596909 -0.3439333950812039 1.7638110912928762 96 105 144
-0.6066528549356885 -0.2259949073947173 1.5952814347889426 239 251 255
-0.6066528549356885 -0.2259949073947173 1.5952814347889426 239 251 255
0.2882882702760645 -0.1919437126698228 1.6456704752887124 83 75 73
-0.3794712982674732 -0.2298987358324531 1.3477646658745315 107 116 147
-0.1589202824195068 0.4438199253398221 1.3356402538605763 163 172 179
0.2565669512160116 0.4389321177789859 1.3540741789704174 184 190 190
0.2456742657860566 -0.1918691703105292 1.6440290105968782 72 71 67
-0.7445086744277589 -0.2430750280872025 1.7199598922137378 111 119 156
-0.2436668695011449 -0.1185640404160946 1.0708906709153927 102 114 156
-0.0883838714881549 0.2338207802941508 1.6082806345982001 54 50 49
0.2609650771516212 0.4402566743342667 1.3522984303454222 150 154 153
0.3678416339691022 0.4391331273019766 1.3601924775753886 190 198 201
0.3678416339691022 0.4391331273019766 1.3601924775753886 190 198 201
0.2371273770792759 0.4758331583465458 1.4525428556411719 78 79 81
0.3302815597651759 0.4413828416917997 1.3579569700082237 129 120 113
-0.3091771113319790 0.2335999715738958 1.5955722886473360 64 62 63
0.1779868832265776 -0.1520600803820204 1.6412807547073336 194 188 176
-0.6179562166482935 -0.1704884696976598 1.5564131856066949 89 100 132
-0.3120648093814375 -0.1146191951409538 1.2226627603001605 247 255 255
-0.6305183492625230 -0.1793743471535816 1.6438156783369504 204 214 239
-0.7363170677190518 -0.2719539987097916 1.6731008329283492 96 110 149
-0.5213348468661660 -0.1397216341822828 1.4819897705540135 245 255 255
-0.0985031181500768 0.2467232334562712 1.6069007292341539 153 149 148
0.2752111304232405 0.3229806673276637 2.1346612076787483 72 67 63
0.4029887837433078 0.4426076221587907 1.3601500755463851 56 61 67
-0.7480693841405590 -0.1541996304341279 1.6643431953658518 240 255 255
0.5393637803733097 0.3388485110079670 2.1491271223582156 68 63 59
-4.3900591629907089 -0.7926440466908204 6.8358962375742740 110 121 153
0.4187277151347744 0.3394486906920813 2.1425074132461162 75 70 66
0.5152484985550003 0.3396135455161904 2.1479800991733655 86 78 75
-0.8090062775118484 -0.1574980831872653 1.7532085060817062 176 184 205
0.0079206962354585 0.3392184669058431 2.1174238842449595 63 58 52
-0.5500788854212644 -0.1221398854768154 1.5768044593804817 126 131 161
0.2731781515148747 0.3554560287855278 2.1344619544562198 79 74 71
-0.3282278992118682 -0.0665193986675680 1.2382860744289448 102 109 135
-0.3167100917993804 0.4576980459916926 1.3256198592753703 134 133 131
0.0786840174488185 -0.0628584422774559 1.6319889158057530 69 66 59
-0.0154380493285749 0.3555370087828382 2.1190807330134902 61 56 53
-0.3970671796460974 0.0030544771763662 1.3197655176021255 72 72 82
0.2005321850328821 0.3718061811180892 2.1295315411734701 71 63 60
0.0574067428150005 0.3717410953024864 2.1207430331175918 66 58 55
0.1919644157136095 0.4588187898863824 1.3476703688666380 54 58 59
-0.0420861090717575 -0.0179272358082868 1.6238524591823233 226 227 222
-0.3065056995737217 0.2870656604398045 1.5949740825145979 138 134 133
0.6464162800702680 0.2128202782941332 2.1591717618423254 47 47 57
0.1240860334084442 0.1353222471066592 1.2618157952228444 37 33 34
-0.1527491100844673 0.1713971418575032 1.6081475874559679 210 209 204
0.2280651458313250 0.3877357947897268 2.1286823290764976 66 58 56
0.2763116863274207 0.3870493772266839 2.1290332995049974 80 70 68
-0.0413803522616905 0.1743138912997288 1.6160220349683712 66 62 59
0.2978587764740778 0.3886200720033400 2.1344589376739429 76 68 65
0.1627635918273297 0.4680334222740296 1.3451830943707799 52 53 48
0.1627635918273297 0.4680334222740296 1.3451830943707799 52 53 48
0.2671294736484286 0.2669272285498396 2.2167010565691867 68 60 57
0.1284499335127046 0.2582762959328799 2.1307401090146860 66 61 57
-0.1773587500667685 0.2038961585022753 1.6042808617454454 148 147 145
-0.2340779654449414 0.2047068150272360 1.6052258394139685 146 144 145
-0.2952472280541155 0.1707974355246332 1.6014169654946016 199 200 195
0.2987229349356863 0.2266687623636306 2.1403864840641438 93 89 88
0.3368425472467493 0.4049755350935804 2.1360064387941784 76 67 62
0.3368425472467493 0.4049755350935804 2.1360064387941784 76 67 62
-0.3834945967996037 0.1694503913631797 1.5963299199408807 183 183 183
-0.1000864830945820 0.4749388331372754 1.3252412283561092 182 180 183
0.8259050059366233 0.4090428607900322 2.1577908200534077 107 107 115
0.2243851838450641 0.2754405446377915 2.1403500415044583 75 65 63
-0.0408038503144733 0.2182498481152890 1.6346039076138816 53 48 45
-0.0419123968865900 0.2185900134897355 1.6379597071826546 53 48 45
0.6108126360558175 0.1244310526897914 0.8577772100161885 66 62 59
-0.0945059713959206 0.2175965232376125 1.6083838234564181 51 50 48
-0.3365957485014533 0.2048536674586612 1.5963330860999243 147 147 149
0.4917046802132331 0.2903559932627767 2.1484577768617927 71 66 62
0.5885959914428511 0.2908711192904772 2.1555297077244346 77 72 69
0.2683560776895746 0.2900612857535213 2.1369498957695003 70 62 60
0.2682993015443738 0.2903010855054216 2.1371340452500789 70 62 60
0.4164645178314072 0.4202176892967694 2.1382579361702030 50 45 42
-0.3463863305776531 0.4754696889141886 1.2858982166327524 53 51 54
0.1122723936670553 0.2910507521860198 2.1298051871930594 61 53 50
0.0969139786576834 0.3081241227358453 2.2616320039577302 64 59 56
0.0969139786576834 0.3081241227358453 2.2616320039577302 64 59 56
-0.3568538454999578 0.2211206664244583 1.5972019238268911 131 131 129
-0.2111240112848001 0.3310923969549640 1.5962190088100650 59 55 54
-0.0634940757995336 0.2293663079657115 1.6092323528403201 76 72 71
-0.0423776511452069 0.2345664596128848 1.6323628652586848 49 45 42
-0.0408849222392559 0.2332918733501604 1.6120409625644585 47 43 40
0.3271632846519951 0.1545886806836836 1.0081364750736124 79 74 70
0.3271632846519951 0.1545886806836836 1.0081364750736124 79 74 70
-0.1397458256582893 0.3660789062653758 1.5959446247144204 137 132 129
-0.3588350575681728 0.2514027825594696 1.5951526065262682 48 48 46
0.3222997465369588 0.3224337792490818 2.1351493565905866 80 72 69
-0.5538303662793513 0.3838932254276357 1.5783877721452262 52 48 45
-0.2409695744898544 0.2526309229149652 1.5984434879886329 151 149 150
-0.4568866606763613 0.3866190712557549 1.5834744276040504 129 124 120
-0.5097242611350066 0.2550162687400587 1.5864782355913125 128 126 127
-0.5097242611350066 0.2550162687400587 1.5864782355913125 128 126 127
0.3897483646936382 0.3389459431482529 2.1395280221582742 77 74 69
0.1767879369350453 0.3406914054814598 2.1343519707757834 73 65 63
0.2257581255210003 0.3402249425730078 2.1334600020385803 80 72 69
-0.4719755842665108 0.3989376492002627 1.5789049485031661 63 58 55
-0.4719755842665108 0.3989376492002627 1.5789049485031661 63 58 55
-0.4197553572742113 0.3508116930678890 1.3854069505888060 63 58 55
0.0209694654481836 -0.6646030863063948 1.6993777443018379 209 206 201
-0.1364281861174587 0.2690709745942234 1.6046424271163247 141 135 135
-0.2277429641831073 0.2694105982055441 1.5963377838455803 160 156 155
0.2207737311124307 0.3555964996719858 2.1307481878366259 72 64 61
-0.3378632283024127 0.2708754652793708 1.5936134072393304 136 132 131
0.3031581870732624 0.4212324380235596 2.1293229642142033 45 36 31
-0.5543292197814546 0.2894839147267162 1.5841977483864902 132 130 131
-0.5542942028600476 0.2893584865276187 1.5841588636437769 132 130 131
0.0138968088083822 0.2712892737283373 1.5604384628306052 70 65 62
0.0138968088083822 0.2712892737283373 1.5604384628306052 70 65 62
-0.0382408436015057 0.2815989278234085 1.6122477858044120 51 48 43
-0.0382408436015057 0.2815989278234085 1.6122477858044120 51 48 43
-0.2602145097376899 0.2991290594458491 1.5947491758434658 53 49 48
-0.0613327354430017 0.2851437988045401 1.6072980303637208 145 141 142
-0.5584990262217898 -0.4607019267898373 1.5614786823699907 134 146 196
-0.6668983735353932 0.4410456344805469 1.5844826846325308 146 135 129
-0.6437080487034474 0.4380724844160795 1.5633561520481556 41 40 46
0.6258249998987817 0.3903768253133453 2.1519511967672020 34 34 42
0.6258249998987817 0.3903768253133453 2.1519511967672020 34 34 42
-0.6203303346842107 -0.3960254467058438 1.5325913062000518 145 159 196
-0.1850938961412368 0.3025459181131767 1.6009718231020436 143 139 138
-0.4246544828952089 0.4490655716089627 1.5785613425611678 43 36 30
-0.5603375168788272 -0.3792491101568802 1.5240473898290714 146 156 209
-0.3829910755974908 -0.2990273748814015 1.2762880833763137 164 170 222
-0.0596030553259090 0.3177405199358055 1.6039584074147537 140 134 134
-0.1450262948882095 0.4589350986547567 1.5373250584703906 126 109 102
0.4440954165630200 -0.3190758838918935 1.6603449444890199 171 163 142
0.2501171920809104 0.2653191055412168 1.3806070737280334 67 62 58
0.0518577216580475 0.4378334333348423 1.3578485930760629 93 89 86
0.4617169209470739 0.4042480983040033 2.1408772215065390 61 51 42
-0.8514449934909906 -0.4362377396624748 1.8984737366745601 123 132 171
0.2033536390836982 0.4384485091640554 1.3601341881199440 151 162 166
0.2674873245380035 0.4367872404772155 1.3629699367377439 68 65 60
-0.2964561850049216 0.4445553001251232 1.3405206506692793 101 95 95
-0.2502158376778708 0.4469156267863684 1.3296480049181874 130 137 143
-0.0195590514779139 0.4441984181202982 1.3376704935402330 59 63 66
-0.0195590514779139 0.4441984181202982 1.3376704935402330 59 63 66
-0.5560096443219844 0.3800603354925172 1.5802309388015499 133 129 128
-0.4610764374880997 0.3861990018931656 1.5781397118333262 133 128 124
-0.2548733930306120 0.4674193467338374 1.3265630115363007 76 77 81
-0.4859937346692091 0.4027371944622241 1.5769240929137351 132 127 124
-0.2417642026807649 0.4100774859951803 1.5904327921759991 135 127 125
-0.4343189762055124 0.4149936957155511 1.5805290727744719 48 43 40
-0.5540316762300239 0.4202195508822181 1.5748727679205337 124 118 118
-0.7044054174905798 0.4426145528707239 1.6083851993563067 154 145 136
-0.5972893093123596 0.4421422077960827 1.5389668071459339 50 52 67
-0.3580377737076706 0.4545532918190100 1.4686804943314253 219 236 254
-0.3455437572605081 0.4437740967570594 1.3358904931169069 99 89 90
-0.2540633747816988 0.4419329395385906 1.3334836215043087 176 176 174
-0.2430123481953254 0.4441092907140061 1.3384600025967528 108 102 104
-0.3376378746145200 0.4475470310921815 1.3265378225019973 193 187 187
-0.3915568511200333 0.4484091061688745 1.3231010784139701 63 62 67
0.1988416088658140 0.4601361525102128 1.3472023795651795 56 58 57
-0.0399597935044070 0.4755391047909922 1.3334250605157432 56 48 46
-0.2552113647874519 -0.6420269513954537 1.6513978106285478 122 121 119
-0.0271734070045671 0.4393635805884332 1.5265990676615993 116 107 108
-0.1660556671793847 0.4396343832984810 1.3486223941660025 81 65 68
0.8049425481740352 -0.4490353527713933 1.6855228586096163 203 204 198
-0.0857764990118996 0.4429812296933646 1.3598118523082938 70 51 55
0.1261343261340735 0.4384063150122318 1.3520620311063281 52 48 45
-0.2598193719728332 -0.2982987659550384 1.1237681315476433 249 255 255
-0.3151580821895302 0.4435357613666126 1.3279932190922208 187 183 174
0.4862044424214277 -0.3509771994294185 1.6621179693324337 207 206 202
0.3009065344838987 -0.2344703659351849 1.6485757730126873 200 199 195
-0.2882664359664150 -0.1626383601250200 1.1281366786778873 99 110 142
-0.0460432166440988 0.3226890579860166 1.6042845898378706 146 141 137
-0.6605587093285770 -0.2198560517392914 1.5777691704580015 239 252 255
0.0309103894466778 -0.0612250501556519 1.6299138018030486 79 75 74
0.6096288333750408 0.0876393727380977 2.1633221125958708 54 52 57
-2.1831804086500779 -1.0137791314959628 2.5342402285441534 127 133 157
-0.0634761245695520 0.2328804172800728 1.6085333687111103 78 77 75
-0.1894211013395487 0.2673960209101570 1.6041307074290561 57 56 61
-0.6994092406236591 -0.3798373327393051 1.7101555457905206 131 139 176
-0.5528120641001759 0.2972611709266750 1.5827956694549719 134 132 133
-0.2354433562019867 -0.1813228567087272 1.1132629967977974 248 255 255
-0.2461357880024378 -0.1849570441218395 1.1283539694038984 248 255 255
0.3808499617427559 -0.2783750605927698 1.6576413624174084 214 211 206
-0.7710328651296838 -0.2946327974226381 1.7498439859578960 98 106 142
-0.2567326639701912 -0.0869302344363492 1.1215077249859029 248 255 255
-0.5343033166842490 -0.2227908386465499 1.4872802362033621 228 237 242
-0.2380020637130975 0.4263153914691907 1.5907186779455162 133 128 125
-0.4059161382823320 -0.0834216145972207 1.3546486473110786 245 255 255
0.6179108203347095 0.1032811026112660 2.1576983488017865 113 120 136
-0.5519065223658663 0.1803333790683691 1.5889306007388013 140 138 141
-0.5569259760959540 0.4056629291548030 1.5294166908948108 35 32 41
-0.6460313660889792 0.4392309751313643 1.5836426942644986 24 18 18
-0.2910899072864986 0.2744301819789350 1.5909146180711413 145 141 140
-0.4322349377380932 0.4474285798977679 1.3357541308197922 174 186 202
-0.3831297565803254 0.4442746885713921 1.3302250375104179 175 182 190
-0.4405677234534489 0.4624407821600625 1.3202618683261733 56 56 58
0.3935338639426965 -0.2788409302036292 1.6549626693956225 204 203 198
0.5949641969034397 0.4058843953907526 1.6477380687946768 162 141 122
-0.6366684521022302 -0.2722462003249648 1.6270877586933312 249 255 255
-0.2674584985497013 -0.1405179651188746 1.1348979145215323 93 106 138
-0.6496715065093520 0.4337221691879465 1.5974930231778450 129 117 93
-0.5525912029347220 0.4264067786505583 1.5779596467624852 126 120 120
-0.2876861585520417 -0.2999850714840526 1.2283154062342865 113 120 149
0.0495033498826050 0.4406815957740174 1.3512291719208820 129 132 137
-0.7036097077039755 0.4463306503437577 1.6205257066294447 149 141 130
-0.5402069917309855 0.4399469804756165 1.4667692402923991 45 40 46
0.2238397084767128 0.4492223445069223 1.3519763019235003 56 56 58
0.5015562645716179 -0.3483518490843602 1.6732001144452135 81 72 67
0.0367257629583508 -0.0567229701641166 1.6419598214433764 57 48 41
-0.7669369612272131 -0.1468480503988817 1.7525487268584219 248 255 255
-0.3167210902107801 0.4476787619474091 1.5851729475515510 78 68 67
0.4336647020032985 -0.3071592977367081 1.6711130323990637 78 71 65
-0.0228163540276927 0.4179652592020541 1.4464100123269132 119 118 124
0.0051303404180086 0.4174017022738442 1.2883481651575537 144 148 151
-0.4837109609127746 0.4706133308099473 1.3187312695907574 90 88 89
0.2978923174764699 0.3715324175722299 2.1341972950325840 56 48 37
0.0773259713331617 0.3885184317100515 2.1222116604292407 51 42 33
0.2021515468064948 0.4004736258536575 2.1265011811869812 61 54 48
0.4384301688273466 0.2776638684909294 1.4549374824614423 39 34 28
-0.2393528678571085 0.3128591888158783 1.5948429807492479 117 107 98
-0.5352608034327919 -0.4371358503387274 1.5200442359321349 158 165 194
0.3132891059994093 0.4219081146066375 2.1330620841507200 47 40 32
-0.0458527693915101 0.3525893976889075 1.7026605880813879 43 35 24
-0.2116781649492893 0.3338989330196339 1.5951862731262738 123 115 104
-0.6656869600763766 -0.4358087862672560 1.6344298447744985 116 123 142
0.4401633174096069 -0.3160205325566002 1.6618866604316480 60 54 42
-0.0442094662404006 0.3829436598356888 1.6515553263044256 37 30 22
-0.5364233766088348 0.4127055656195414 1.5754565818735906 118 112 112
-0.6095933185206303 -0.3063194288429162 1.5605193705261973 247 255 255
-0.0934684268117155 0.4292605587652591 1.5977741338380758 54 42 30
-0.1403429192121003 0.4318828295625162 1.5910037023319443 109 95 86
-0.6673019646238936 -0.3105279869583782 1.6450756065881267 245 255 255
0.5108603524732360 0.4412220241245801 1.6258208227810023 145 125 98
0.3122996204754554 -0.2335947858690290 1.6505764684948636 179 175 164
-0.3255734629259023 0.4503378510039551 1.5777214929335155 239 247 255
-0.3255734629259023 0.4503378510039551 1.5777214929335155 239 247 255
-0.2605669117349753 0.4506455929849996 1.5838981369298784 182 182 182
-0.2227046195155828 0.4493256928859777 1.5827925969788530 178 178 180
-0.1967435597726169 0.4475293547044417 1.5805109094106187 186 189 194
-0.6115643705982357 0.4415737748343349 1.5135252895880138 70 73 80
-0.7913929148067509 -0.1040727065168077 1.6968378832131945 214 227 244
-0.0649366387739321 -0.0260753198312729 1.6285104615680408 185 177 158
-0.1573144828639069 0.4574403597800872 1.5330240693384904 105 87 73
-0.4364239813310581 0.4574521080967057 1.4731573097663224 44 30 29
-0.2191217650675507 0.4405967065540020 1.3465317618778387 55 37 37
-0.1897612138416087 0.4427246626008663 1.3448545779573833 157 156 154
0.1652118554048138 0.4407101765831603 1.3559444182372951 49 42 32
-0.3174689917474821 0.1709365329576175 1.5986248535826761 166 159 143
0.2074274607248549 -0.1491479434937168 1.6441722169096322 65 58 50
-0.5951440876037285 -0.1549048880437744 1.5507600087570494 227 240 255
0.4181228045584457 0.2420957113082955 2.1467076570214783 60 51 44
0.2909792128104055 0.4402861238356933 1.3556827521919830 123 123 113
0.2867875054423147 0.4420213237906231 1.3550743057849053 46 47 39
0.2005022940077143 0.4451211849988965 1.3487010164988813 88 90 87
0.2983291603764236 0.4436873326954455 1.3541089052670692 45 45 37
0.2179246584601989 0.4456493356981802 1.3497767726354859 71 77 75
-0.6403905097425798 -0.1262281489078990 1.6188707985585584 222 235 252
-0.1155385328882568 0.4517307154322298 1.3347332159565863 53 57 58
-0.4220808922284089 -0.0569340416064116 1.3211370935165414 80 80 88
-0.2534964993026207 -0.0265329073785103 1.6205613803103731 162 155 136
-0.1215862283774675 -0.0180325021147834 1.6247502653845636 210 206 195
0.0957178607164964 0.4532575654043580 1.3440728118491179 91 90 86
0.3449923689708840 0.3236128120876504 2.1410178492303822 65 58 52
0.0926940559478972 0.4608853560184432 1.3428983889597212 44 41 36
0.3479871540323147 0.2411025431443456 2.1390534007069011 53 43 34
-0.0459514188584079 0.2079477520678340 1.7468503913343958 53 46 40
0.2976040672082843 0.3564552346971018 2.1367779211367539 60 50 38
0.4918875041972562 0.3553115232631101 2.1457110837391773 58 49 42
-0.6496890828761556 -0.1100342106327715 1.6711979230757967 225 234 251
-0.0506272336230257 0.4501968151856904 1.2703815940250662 25 23 24
-0.7817540644841307 0.2443710616796497 1.9279503969238698 152 145 137
-0.1470258163185485 0.4744984022913745 1.3193715578019851 92 82 72
-0.8692500751539800 0.0149050695236665 1.8504005829862438 89 88 93
-0.5310959023902605 0.1700234375361177 1.5893822843112213 134 126 115
0.4066051850366141 0.1813059378201998 1.1524097817124577 31 24 14
0.4066051850366141 0.1813059378201998 1.1524097817124577 31 24 14
-0.1603209163154420 0.2527760199435543 1.6044773448161749 113 106 96
-0.4063054930771719 0.2545848019153981 1.5939880821501802 124 117 107
0.2293581909454666 0.3400827369183342 2.1333978026293186 53 43 33
-0.0861783808610325 0.3341311552173069 1.6026896976175284 123 115 104
-0.1370753637056508 0.2692435613231023 1.6057666505488097 117 107 98
-1.3178574089361310 0.5022015054868810 3.0569621807601144 38 31 21
0.1291700321669477 0.3553719525950190 2.1255715637754458 78 68 66
-0.0463747539306394 0.3981306955673801 1.5979941988945980 115 102 93
-0.3532941863143396 0.4791808806019047 1.6145021430014899 59 57 58
-0.2607456702099462 0.3976335998733677 1.5899874877920150 37 27 18
-0.2869317437800168 0.4140190350546303 1.5886445859280403 66 60 60
-0.3097871784754987 0.4155317922179196 1.5881380093908208 41 31 22
-0.1087138504859663 0.4173169430603570 1.5995358549282501 112 100 88
-0.5565737620956632 0.4366818889425892 1.5171102444251077 71 75 78
-0.3483815686176915 0.4767821056991638 1.3043650972901861 45 43 44
0.4813454312258650 -0.3140584308331205 1.6659035231356059 55 48 38
-0.5710531015712778 -0.3986508310459866 1.4951071171502222 138 144 166
0.7299441906129184 0.2599606520808723 2.1627922665818442 73 75 87
-0.1570433547106525 0.3855811085261164 1.5977304691872587 115 105 93
-0.5578623956901273 0.3450143660097418 1.5912189864824062 111 103 101
-0.2413751088046395 0.4086762135852939 1.5887854960720893 145 137 135
-0.6281913675407479 -0.1747104381349672 1.5357041779077885 223 234 254
0.0881461101798365 -0.0620125262304291 1.6377953517549499 59 51 40
0.0215708147734318 0.4414677338745739 1.3584437524020407 56 50 50
0.0382662895257893 0.4439989105483571 1.3433599734110206 48 48 46
-0.6413684112101512 0.4385895152374522 1.6157822615112289 45 41 40
-0.1190446300811934 0.3877955331519628 1.5946103159125464 118 111 105
-0.2048352114088023 0.2587244649107696 1.6048059509344352 119 111 100
-0.0954046112884364 0.3060910614448112 1.6005821780084224 118 108 98
-0.1517112186269085 0.4398446848872781 1.5278455656570309 40 38 39
-0.2810335835714265 0.1592482123303543 1.6036073992158588 173 171 159
0.2588027459291347 0.4427449425607164 1.3524615296931930 46 47 41
0.0220549240053281 0.4729270787785985 1.3207831444576785 129 111 91
-0.0299144687277553 0.4743367326777834 1.3037550309567922 131 106 76
-0.4940337315192944 -0.3118709767988119 1.5425280841958522 80 91 113
-0.0503729765101746 0.2388169376710124 1.5281897114076233 124 115 108
0.1931340393111093 0.2034274694411051 1.3335858428615908 57 48 41
0.2888749738301107 -0.2310606767001853 1.6501647715595802 183 175 154
-1.4977561290840320 -0.7344188298283195 2.1776488338870870 133 139 161
-1.4001287059166538 -0.4628307615363290 1.9777646391977544 244 255 255
-2.3958307904236951 -1.0762857398391510 2.7486498201011993 251 255 255
-2.2923215134330341 -1.0047723791293990 2.5633937473249109 189 202 237
0.6166513211268365 0.1679299409420264 1.1476906178661548 48 39 30
-0.0406264995032356 0.2686635418041107 1.6063315450304867 118 110 99
-2.4036026273997506 -0.9153724062868697 2.6525508029604423 121 128 147
-2.4130466279390421 -0.9180350641245133 2.6579404282225663 121 128 147
-2.0480591766478784 -0.9429938831409740 2.6217518747518307 125 137 179
0.4622033500463519 0.3394095806670926 2.1455420820530486 61 51 42
-1.1952099378983805 -0.5455599349843570 1.9161794143622264 242 255 255
0.4168391338185920 -0.2777971316445044 1.6600051075771751 159 152 136
-0.5777867841386441 -0.4048718505666234 1.5767772196309138 152 155 198
-0.5795036498958905 -0.4048699329242370 1.5778758146071308 152 155 198
-0.0464574337557834 0.3042342003539415 1.7208741390973199 55 46 39
-1.0991780877197894 -0.5415275150384514 1.9968199272581686 86 88 109
-2.3478793153468627 -0.9218168204564303 2.7367308282283314 217 227 239
0.0653899201480096 0.3727084288922081 2.1244315749738085 50 40 30
-0.4090498520216224 -0.3351740165477484 1.4690269461017018 92 100 123
0.0653899201480096 0.3727084288922081 2.1244315749738085 50 40 30
-4.5360044826135182 -1.0740023411275172 4.2676748689092499 77 84 102
-0.2624975193834425 0.2997051168634078 1.5858433698296326 114 105 98
0.3402262457615117 0.3708055124719298 2.1300646005943387 60 50 41
0.3402262457615117 0.3708055124719298 2.1300646005943387 60 50 41
-0.7458873561240040 -0.4236632899759830 1.7517341453907367 247 255 255
-0.4578078591908602 0.3200450662676892 1.5821094347269564 120 111 102
-1.2189127801631001 -0.4989727559047865 1.9601420158101655 244 255 255
-0.0448070914694446 0.3358044077600815 1.7092187379022086 46 37 28
-0.3344168297411215 0.3330787368382569 1.5894567892899465 34 22 6
0.6317546676993548 0.1837716100379198 1.0820171366995051 60 53 47
-2.5267489206636466 -0.5327370034714128 2.8111622016257938 231 244 255
-2.0380889042985086 -0.7405783761037938 2.6370130725446002 77 88 106
-0.5747934758206330 -0.2142767423591060 1.6042869810086655 109 116 142
-0.2445268989565131 -0.2523588550608993 1.6213304500458716 123 108 79
-0.9350134398669668 -0.4081636201327334 1.8102306516168323 237 249 255
-0.6050567073507367 -0.3604528056819043 1.6229130103763567 246 255 255
-2.2687332514958483 -0.7786818577933728 2.7242519459585535 221 232 254
-0.1361522949115541 0.3478631463339595 1.6013677702026792 50 35 14
0.3567850431568252 -0.2346465919591869 1.6664346645128534 140 129 111
-0.0428287154579449 0.3676009581180639 1.7061582079579940 52 43 36
-0.0428287154579449 0.3676009581180639 1.7061582079579940 52 43 36
-2.3613612572860414 -0.7262924053448693 2.6782591463795407 245 255 255
-1.1530943140268388 -0.4136403797722679 1.8565183988668794 243 253 255
-0.2745859856433436 0.3655929476797257 1.5932421111775144 35 25 16
-0.2744345376413710 0.3655237498698473 1.5931033945467481 35 25 16
-0.2246210409659291 -0.1219321951183785 1.2959256487584734 205 218 235
-0.0487944203257153 0.3863876762950578 1.7227923177522573 41 31 19
-2.9623184880088926 -0.7884493938736171 2.9933195741066245 99 109 134
-2.4251835988474855 -0.7009284366772834 2.8533232098837238 212 220 239
-1.0811866062357154 -0.3766944571028271 1.8812459940899762 239 253 255
-1.6179458026398750 -0.2850391628811130 2.1534705394443647 221 232 252
-2.4416595393484402 -0.6635857577828002 2.8820102186000276 238 246 255
-2.4481919699883412 -0.3924834662514485 2.7360470771318171 224 235 255
-1.3034716295382134 -0.4506026483035557 2.0829237327916603 239 251 255
-0.6683445158069170 -0.2888087492250454 1.6921624657274910 90 93 108
-0.6491111121858685 0.4337752796072930 1.6112215040080557 36 29 23
-0.6461700957322475 0.3888509070602932 1.3974761476846538 79 60 54
-0.5426223705333414 -0.1178075660819381 1.5691319864421522 226 237 255
0.2483599948302216 -0.1952371771792710 1.6461015440523217 181 170 150
-2.0425916861700379 -0.4923934057062465 2.4476944123408590 226 234 255
-0.8184797031681417 -0.2784321459078640 1.7243957319279080 223 234 254
-0.0414849826284477 0.4062120633951284 1.6006950900450967 106 92 81
-0.5492145906746640 0.4413670768184630 1.5615316724264086 26 26 28
-0.5475128157916690 0.4409725193437439 1.5601172180643199 26 26 28
-0.2582689615049318 0.4283318649856194 1.5921789756124876 113 103 94
-0.3129986484398698 -0.0027247989862500 1.2927514514085738 103 107 116
-0.1144318157516648 0.4265611061101715 1.5956095273003670 115 104 98
-0.5413585561994866 -0.2259355367973057 1.5071474398460223 244 255 255
-0.6250840435261730 0.4360811435009393 1.4131986120971451 30 24 24
-0.3341620913900405 0.4495051805908160 1.5676990989776731 37 38 42
-2.5382467194135900 -0.5862490782327332 2.7989589916666140 229 240 255
-0.3333946579293893 0.4587023313727535 1.5792454511310261 17 15 16
-0.6676947348791054 0.4444904082507551 1.4042756556636267 100 93 85
-0.2371426230311771 0.1707981738620467 1.6042765854340475 177 170 160
0.4224666523622599 0.4030459791160141 1.6248697733017872 64 52 38
-0.3045611057312879 0.1740464102535179 1.6013023817526513 58 53 49
-1.6456731443517651 0.7381309923796767 2.0480175515687060 57 45 47
-0.1509208695311069 0.4557058592197026 1.5292577880613694 105 87 73
-0.4000460391149125 0.4408661795973384 1.3327725407148874 139 131 118
-0.3026658887908473 0.4355931150808700 1.3259651728421535 171 166 162
-0.3610117971265900 0.4431647430077565 1.3262273233717439 171 175 178
-1.7746377980581640 -0.4108475634158188 2.3975682342584927 108 114 136
0.4635951252344538 0.4402947170656283 1.6123087938996230 27 17 8
-1.5937247949216584 -0.2709796372237591 2.2798337228853125 235 249 255
0.5149772800400285 0.4422064844816326 1.6222766018421029 116 94 71
-0.9890671811303451 -0.2784985077456142 1.8666142717160705 226 237 255
0.5057375209044499 0.4436527763583885 1.6206116661636447 55 45 36
0.5419560530044897 0.4430305137747761 1.6273378372689613 37 27 17
0.5419560530044897 0.4430305137747761 1.6273378372689613 37 27 17
-0.6333335352351779 -0.1169336061319677 1.6000081927619441 246 253 255
-0.1041436970803584 0.4420168460218896 1.3523361477212517 129 131 128
-0.2515868692416446 -0.1554653576434606 1.6208597738538535 143 131 115
0.2020059526592942 0.2739904007651958 2.1343379285973541 49 40 31
-0.7428958041931897 -0.1025436110098038 1.5701175803417302 56 63 82
-0.0329923158350086 0.4469471940456682 1.3675883855333482 122 121 117
0.0158753249077070 0.4394966121493260 1.3420680163116330 54 53 49
0.0547103616585204 0.4393151858531160 1.3559488228795573 127 127 125
0.1533964000964208 0.4394057318791389 1.3524843442535321 153 147 133
-0.2562804712516937 0.0000883714875935 1.2719259074333151 70 77 85
-0.2841989933693604 0.0162504044417381 1.3324971145643845 46 49 54
-0.2727260031021305 0.0172069577347754 1.3226087743219928 47 50 55
0.2723444499555739 0.3407232611024187 2.1388940023024428 61 52 45
-1.7159223636391905 0.4779826034497943 2.3189044653042750 85 74 56
0.6221758412147486 -0.4404594359125782 1.6763151495241773 194 190 179
-0.4973077187602802 0.3069214375409409 1.5950875723691953 120 115 111
-3.6649685504386715 -1.5672578934264714 3.7447979238713582 172 177 196
-0.2881491859734769 0.3026290255286534 1.5917493599882333 128 123 119
-1.6802785933232747 -0.8057572575544862 2.2001519265009897 246 255 255
-0.0075784498698551 0.1955415145645748 1.5491347284709711 132 122 113
0.4648426383850859 0.2532479823695268 2.1524232256574574 44 35 26
-2.0987384244391141 -0.9563463602650391 2.6766931096580464 113 127 162
-0.0668933077093111 0.2202379533828830 1.6098679659088833 121 114 108
-0.0603406848753644 0.3177371025033598 1.6047198804777194 115 107 96
-2.0039185578229191 -0.7909784417053174 2.4517442476937994 243 254 255
-1.6107249404510326 -0.6873306802379431 2.3138405241545836 139 150 170
0.4161236044376476 -0.2749034005919341 1.6576060947088294 45 41 30
-0.0927644148899271 0.3439576311430315 1.6002543606132882 117 107 97
0.2953257375681683 0.4221339366894889 2.1319168962283901 43 35 32
-0.0430018882505823 0.3482918932337902 1.6073020350575329 34 25 16
-0.0431820315397324 0.3483707862657136 1.6075618362039708 34 25 16
-0.0434351147909468 0.3671639703218605 1.6993420491334930 49 40 35
-0.2102447484129394 0.3617458755540545 1.5983792009962374 128 115 107
-0.4825719675040371 0.3823903239048684 1.5793828419977052 37 26 20
-0.4318035102159029 0.2678504367309719 1.5891629057866263 36 29 19
0.4421130161996814 0.3235888574546374 2.1476669037589882 62 55 45
-0.6825062678923959 0.4380925199133714 1.4925906455621696 76 59 49
-0.2336525259035700 0.4489617560754484 1.5918997599992055 45 41 40
-0.2497365223039905 0.4496943473622506 1.5824731102253260 197 197 199
-0.5967636992007050 0.4634513071783479 1.3116291166300675 49 46 41
-0.2476509839446223 0.4434343160778913 1.3376068911300694 149 148 146
-0.5518180561605595 0.3381229952501376 1.5793114461335922 107 98 91
-0.0478857772875320 0.3377733570617314 1.7283922834033822 48 38 26
0.0882215366345508 0.4408657594691800 1.3904893556574245 202 199 182
0.0996881997671253 0.4396628901940755 1.3554767114701336 157 157 147
0.1184996042222656 0.4396520956234051 1.3619540146721436 116 112 101
0.1361593397651416 0.4381867946933933 1.3508123029100234 147 141 127
0.2214649160751581 0.4396795680842811 1.3577082556746030 61 58 49
-0.2818054438399026 0.3688964767084948 1.5922027124011486 116 108 97
-0.5561095110234050 0.3889606883805591 1.5797413124245439 109 100 91
-0.0419269927536947 0.3641815167679440 1.6066372605325419 44 35 18
-0.0419555964276608 0.3641280314435100 1.6066049803019282 44 35 18
-0.1142659879282740 0.3917673730659647 1.5947605739722988 124 111 102
-0.6794178718040758 0.4427494513301001 1.5507602775250993 114 104 94
-0.6720745168642147 0.4407897919193064 1.5231362595432183 106 93 85
-0.6886789828360409 0.4407664940290573 1.5023811773391331 52 42 33
-0.6890521827836998 0.4410262890991237 1.5035702223074954 52 42 33
-0.6815974467945213 0.4426111995851780 1.4943769414294947 154 135 121
-0.0822396006057404 0.4293938781059587 1.5406954813236606 58 56 57
-0.0044395562355007 0.4402575177696961 1.6007288034909122 157 121 89
-0.3484895191334473 0.4418121719504730 1.3349532385142833 139 139 137
-0.2345157966601773 0.4444458922218480 1.3343951369501985 167 171 174
-0.2343460083650900 0.4444708122038794 1.3342522959007803 155 159 160
-0.2440822155407108 0.4488007941960612 1.3339986957163026 138 138 138
-0.0987362129259664 0.4441656408736995 1.3578821518328801 131 140 139
-0.5241219704561482 0.4763291703907658 1.2617748538755573 39 30 31
0.2622644475115157 0.4371183264696390 1.3586627716162238 75 75 65
-0.5547233387214251 0.3229597794904692 1.5831339991263724 113 108 105
-0.0646816800423685 0.3634926209141383 1.6030877369539853 44 31 12
-2.1142375187000897 -0.9591469457085685 2.6253516819791938 94 100 124
-2.0665643789425059 -0.9386134321255791 2.6217790743546141 112 121 162
-2.1051778381221649 -0.9418787255612525 2.6895668775635677 97 101 126
-0.2520829389404599 -0.3941815586073888 1.6331183298753196 143 134 119
-2.3259889241293217 -0.9218042597997226 2.8070713362832111 248 255 255
0.1818635134218856 0.4397611568381739 1.3632424836082067 120 121 115
-1.0386402537479398 -0.4873160879130032 1.8638868380654159 252 255 255
-0.5304772990078448 0.3113284642969011 1.5902225612961147 114 105 96
0.0867243943920802 0.4391881103399107 1.3453777887454832 149 151 148
-0.7040097017501268 -0.3410389277126957 1.6926793760881551 221 233 255
0.6097290033935669 -0.4075230054183425 1.6762137652809053 189 181 160
-0.7463699836997644 -0.3673181042391842 1.6770277711680726 230 242 255
0.2895895496064038 -0.1934857880292684 1.6744893988783820 113 103 91
-0.6328919715544088 -0.2120271925756557 1.4698417100990178 227 238 255
-1.6145588515252904 -0.4745299773089673 2.3399907240102107 64 70 84
-0.2527841529618892 -0.1907021194478131 1.6236601569989415 137 128 111
-0.2527841529618892 -0.1907021194478131 1.6236601569989415 137 128 111
-2.5185247812208758 -0.5156689362894221 2.7822497272201172 229 243 255
-1.1245579175490850 -0.3094504490345540 1.9079456138704858 108 119 139
-0.3537993106887311 0.3264761564129589 1.5943163262871065 118 109 100
-2.4525428418677029 -0.7305572818455474 2.8729808966963821 244 255 255
-0.6477077784477259 -0.2009950575584277 1.4995705222673230 244 254 255
-0.2532321298400929 -0.0655903217470927 1.6158284424025671 147 138 121
-0.2534579439195945 -0.0571522061704784 1.6161452954973483 136 128 109
-0.0368706991212763 0.0159709747784417 1.0831092523558852 64 67 72
-0.9632212858447760 -0.0154143979294370 1.6608148394691735 99 103 112
0.0868154208972387 -0.0669483272454462 1.6316647485396276 191 183 160
-0.5286090765283974 0.2014731519217418 1.5856496787528938 48 43 37
-0.3400540341704357 0.2096250065413557 1.5936193851272391 143 143 143
0.6180071172577289 0.1124448127256560 2.1600504836089796 89 88 94
-0.5107925051885924 0.3569916938614964 1.5742132802039348 100 90 81
-0.5272261626821425 0.3763367267041896 1.5829875287334747 109 100 91
-0.7381758151974983 0.4408552671658557 1.8218742948927744 108 103 99
-0.4611181043426342 0.2588334163155919 1.5814435564164016 119 113 101
-0.2541004553612003 0.3912230946040074 1.5963205270742018 119 106 98
-0.8435746174140495 0.3587726116778402 2.0307815289089755 121 118 113
-0.4293316679611313 0.4087976603011406 1.5868032059257782 110 97 88
-0.4280330005166082 0.4084187221990189 1.5856173777546763 117 108 103
-0.3901127131356815 0.4051819823576136 1.5772446847764474 108 98 88
-0.5057559958588249 0.2951503925749984 1.5934616116819900 118 109 100
-0.7567221210427005 0.4439876054252236 1.5682862977581238 43 49 35
-0.4034818194980416 0.4254629040875224 1.5880514567631441 111 98 89
-0.0831305865855573 0.4064240190219860 1.6038686749008750 117 107 95
-0.5043248576386584 0.4433327605733469 1.3187868044282249 163 164 159
-0.6013489562239545 0.0134060578616317 1.6213071518822508 37 41 52
-2.4077305279781873 -1.0015807771257144 2.8352971738874246 254 255 255
-0.5680692539887150 0.2198704735477237 1.5901540946743058 41 39 40
-0.3080982724104537 0.4413649822385632 1.3288897181526509 190 186 177
-0.7116914843115830 0.4447686859844891 1.5989872942282264 106 92 81
0.0747207965660129 0.4480917391072870 1.3441746527014682 40 39 34
-0.6946866339950817 0.4396524065041398 1.5240955727448835 115 94 67
0.0746057289577152 0.4478005260461159 1.3443148050182281 40 39 34
-3.1052085983538622 -1.0390104807911282 3.3617669974854252 244 255 255
-0.5846361694542327 -0.2262966820128838 1.5293432985945230 233 244 255
-0.3516981819136161 0.4410458227495455 1.5830643644172313 101 89 77
-2.9809500212933355 -0.5834249999383108 3.3159580237406767 89 100 130
-0.7538819913548503 -0.3555128053287643 1.6329165903332095 232 245 254
-2.3561976529406214 -0.6433948833150266 2.6798132470976541 102 107 129
-5.1217371881522986 -0.3313198587673083 5.9180686080174558 65 65 73
-0.6638172325225121 0.4249147209223313 1.3995441721264608 39 40 34
-0.2127741677614808 0.4454611688702017 1.5889291939218086 61 52 45
0.2771647594597774 -0.2082435153486966 1.6446651837611503 190 179 157
0.2124799918136804 -0.1653404482186188 1.6384291557508541 187 179 158
-0.5207654760059067 0.4481619210043968 1.4802602688478639 34 26 24
-0.0018244709326411 0.4397743422982506 1.3447993611713764 103 105 104
-2.3596860644660547 -0.9541816576893797 2.6922844990090726 239 244 250
-0.6360003303339697 0.4193170190951545 1.4068550311181616 158 158 168
0.5341057627735890 -0.3827689861739622 1.6792647782749244 179 174 154
-0.6461378462509296 0.4304498159928248 1.3672181806660071 36 37 31
-3.5767106672748312 -1.4997490422195148 3.5839188882533106 249 255 255
-0.2595163036619382 0.1714665946136061 1.6009540747820807 171 163 144
-0.4515023772818431 0.4313334594841000 1.5777177365770705 38 27 9
-0.0400184113535895 0.1729875855052015 1.6300980671433993 149 137 121
-2.1637056512035020 -1.0069045650229083 2.5216132519771928 127 133 157
-0.1341885942407275 0.4303303387908050 1.5977912513567314 46 33 24
-2.3553886506486972 -0.9536665661913933 2.7368223183297991 116 123 142
-2.3806643215189229 -0.9374179910282707 2.7609460903052265 249 255 255
-0.2616674911323224 0.2202298559983270 1.5983665023369822 122 115 105
-1.0474996078883401 -0.5735247509785969 1.8853191493364827 121 129 148
-0.6031585825488126 -0.4330426949682865 1.5950178750996145 121 129 148
-0.4051802600340156 -0.3340228850932114 1.4666154849176982 92 100 123
-0.5963802621169090 -0.3720854646937868 1.5751355327189365 121 129 152
-2.4193488271145553 -0.6949998734980518 2.6301069480865200 157 167 192
-0.5303880637116228 -0.3332923113398134 1.5828001514822052 236 247 255
-0.8174244670564892 -0.3432947984545396 1.6503051205361801 227 237 247
-1.7156814673862952 -0.3620645534410034 2.3727621719734460 224 235 255
-0.0953999367362701 -0.0180173458443116 1.6216445339074781 205 197 178
-2.9689466532165381 -0.8075048371470331 3.2518471243919933 92 94 115
-1.4898474850533610 -0.3332490487391613 2.1484201399250558 223 234 254
